8.48,8.49,8.48,8.48,8.50,8.51,8.51,8.55,8.56,8.56,8.55,8.59,8.51,8.49,8.46,8.31,8.36,8.45,8.32,8.27,8.19,8.13,8.13,8.18,8.25,8.31,8.39,8.39,8.43,8.46,8.57,8.65,8.68,8.69,8.79,8.88,8.90,8.91,8.89,8.79,8.88,8.88,8.75,8.76,8.88,8.95,9.00,9.04,9.07,9.10,9.15,9.17,9.17,9.16,9.13,9.13,9.15,9.17,9.18,9.19,9.19,9.17,9.15,9.10,9.11,9.21,9.55,9.70,9.80,9.82,9.86,9.86,9.88,9.89,9.90,9.90,9.92,9.95,9.95,9.95,9.95,9.95,9.91,9.91,9.92,9.92,9.92,9.92,9.90,9.89,9.89,9.89,9.88,9.88,9.88,9.88,9.88,9.88,9.88,9.88,9.87,9.87,9.87,9.87,9.87,9.87,9.86,9.86,9.85,9.82,9.82,9.91,9.91,9.91,9.91,9.91,9.91,9.91,9.91,9.91,9.91,9.91,9.91,9.91,9.92,9.93,9.93,9.93,9.92,9.92,9.90,9.91,9.92,9.93,9.93,9.93,9.93,9.94,9.95,9.91,9.91,9.90,9.90,9.90,9.88,9.88,9.87,9.88,9.88,9.89,9.87,9.69,9.56,9.49,9.40,9.52,9.51,9.76,9.72,9.77,9.83,9.85,9.74,9.83,9.86,9.87,9.82,9.80,9.87,9.87,9.86,9.90,9.87,9.88,9.95,9.94,9.90,9.90,9.85,9.86,9.76,9.69,9.64,9.63,9.63,9.62,9.62,9.63,9.62,9.64,9.68,9.83,9.80,9.81,9.82,9.81,9.82,9.86,9.89,9.89,9.93,9.91,9.88,9.88,9.91,9.87,9.82,9.80,9.81,9.80,9.79,9.76,9.64,9.62,9.62,9.61,9.60,9.60,9.59,9.55,9.56,9.60,9.67,9.86,9.74,9.69,9.71,9.73,9.70,9.86,9.88,9.88,9.88,9.89,9.89,9.89,9.90,9.90,9.90,9.90,9.90,9.90,9.90,9.91,9.94,9.91,9.90,9.89,9.87,9.87,9.88,9.87,9.87,9.86,9.88,9.89,9.88,9.50,7.42,6.31,6.11,5.91,5.91,5.91,5.91,5.90,5.90,5.89,5.86,5.82,5.81,5.78,5.74,5.72,5.73,5.74,5.76,5.74,5.79,5.79,5.75,5.75,5.78,5.78,5.67,5.50,5.48,5.48,5.48,5.48,5.48,5.48,5.48,5.48,5.48,5.48,5.48,5.48,5.48,5.48,5.48,5.48,5.48,5.48,5.48,5.48,5.48,5.48,5.48,5.48,5.48,5.48,5.48,5.48,5.48,5.48,5.48,5.48,5.47,5.47,5.47,5.47,5.47,5.46,5.30,5.28,5.28,5.28,5.28,5.28,5.28,5.28,5.28,5.28,5.28,5.28,5.28,5.28,5.28,5.24,4.85,4.83,4.83,4.83,4.83,4.83,4.83,4.83,4.83,4.83,4.83,4.83,4.83,4.83,4.83,4.83,4.83,4.83,4.83,4.83,4.83,4.83,4.83,4.83,4.83,4.83,4.83,4.83,4.83,4.83,4.83,4.83,4.83,4.83,4.83,4.83,4.83,4.83,4.83,4.83,4.83,4.85,4.87,4.87,4.87,4.89,4.93,4.87,4.84,4.82,4.79,4.78,4.76,4.77,4.75,4.74,4.73,4.73,4.72,4.72,4.72,4.72,4.72,4.72,4.71,4.59,4.58,4.30,4.20,4.20,4.19,4.20,4.19,4.20,4.21,4.21,4.14,4.13,4.10,4.06,3.82,3.81,3.81,3.78,3.77,3.76,3.73,3.71,3.68,3.67,3.64,3.64,3.63,3.54,3.48,3.43,3.42,3.37,3.31,3.30,3.31,3.23,3.21,3.21,3.22,3.17,3.17,3.16,3.16,3.13,3.09,3.01,3.01,2.88,2.88,2.87,2.86,2.80,2.76,2.74,2.73,2.70,2.68,2.68,2.67,2.67,2.65,2.63,2.61,2.58,2.55,2.52,2.51,2.50,2.49,2.47,2.45,2.44,2.42,2.39,2.38,2.37,2.36,2.36,2.35,2.34,2.32,2.28,2.26,2.25,2.24,2.23,2.22,2.22,2.22,2.22,2.20,2.19,2.18,2.17,2.16,2.15,2.15,2.14,2.14,2.14,2.14,2.14,2.14,2.13,2.12,2.12,2.12,2.12,2.11,2.10,2.11,2.11,2.10,1.95,1.90,1.90,1.90,1.90,1.89,1.88,1.87,1.87,1.84,1.84,1.82,1.82,1.81,1.80,1.79,1.79,1.77,1.77,1.76,1.75,1.74,1.73,1.72,1.71,1.70,1.69,1.69,1.68,1.68,1.67,1.66,1.65,1.65,1.64,1.64,1.63,1.62,1.62,1.61,1.61,1.61,1.60,1.59,1.59,1.58,1.56,1.55,1.55,1.55,1.54,1.54,1.54,1.54,1.51,1.49,1.49,1.48,1.48,1.48,1.47,1.45,1.45,1.45,1.45,1.45,1.45,1.45,1.45,1.45,1.45,1.45,1.45,1.45,1.45,1.46,1.46,1.46
8.48,8.48,8.46,8.45,8.45,8.47,8.47,8.48,8.47,8.47,8.47,8.48,8.47,8.46,8.44,8.38,8.54,8.54,8.35,8.33,8.24,8.19,8.18,8.29,8.32,8.34,8.40,8.41,8.46,8.50,8.56,8.66,8.69,8.75,8.87,8.88,8.89,8.93,9.00,8.91,8.88,8.89,8.88,8.89,8.91,8.95,9.00,9.04,9.06,9.07,9.08,9.09,9.10,9.10,9.11,9.13,9.15,9.17,9.19,9.19,9.20,9.20,9.17,9.17,9.22,9.36,9.62,9.79,9.84,9.86,9.87,9.88,9.89,9.89,9.90,9.90,9.90,9.94,9.95,9.95,9.95,9.93,9.91,9.91,9.91,9.91,9.92,9.92,9.91,9.90,9.89,9.89,9.88,9.88,9.88,9.88,9.88,9.88,9.88,9.88,9.87,9.87,9.87,9.87,9.87,9.87,9.86,9.86,9.85,9.84,9.84,9.91,9.91,9.91,9.91,9.91,9.91,9.91,9.91,9.91,9.91,9.91,9.91,9.91,9.92,9.92,9.93,9.92,9.92,9.90,9.90,9.90,9.91,9.92,9.93,9.93,9.92,9.93,9.94,9.92,9.91,9.91,9.90,9.90,9.89,9.88,9.87,9.88,9.88,9.88,9.88,9.77,9.73,9.68,9.43,9.59,9.60,9.82,9.84,9.86,9.86,9.83,9.73,9.83,9.86,9.86,9.73,9.72,9.85,9.87,9.84,9.83,9.83,9.86,9.94,9.90,9.90,9.89,9.81,9.81,9.74,9.65,9.63,9.63,9.63,9.62,9.62,9.63,9.64,9.69,9.79,9.84,9.85,9.86,9.86,9.86,9.85,9.86,9.86,9.87,9.85,9.88,9.87,9.86,9.85,9.86,9.82,9.78,9.65,9.63,9.62,9.62,9.61,9.61,9.60,9.59,9.56,9.53,9.52,9.42,9.42,9.58,9.66,9.88,9.86,9.74,9.83,9.83,9.70,9.82,9.82,9.85,9.83,9.84,9.88,9.89,9.90,9.90,9.90,9.90,9.90,9.90,9.90,9.90,9.90,9.90,9.90,9.89,9.87,9.86,9.86,9.85,9.86,9.84,9.85,9.89,9.88,9.70,8.87,6.93,6.47,5.89,5.90,5.89,5.90,5.90,5.90,5.89,5.86,5.81,5.81,5.79,5.74,5.73,5.74,5.75,5.77,5.75,5.80,5.80,5.78,5.78,5.77,5.76,5.67,5.50,5.48,5.48,5.48,5.48,5.48,5.48,5.48,5.48,5.48,5.48,5.48,5.48,5.48,5.48,5.48,5.48,5.48,5.48,5.48,5.48,5.48,5.48,5.48,5.48,5.48,5.48,5.48,5.48,5.48,5.48,5.48,5.48,5.47,5.47,5.47,5.47,5.47,5.46,5.29,5.28,5.28,5.28,5.28,5.28,5.28,5.28,5.28,5.28,5.27,5.27,5.27,5.27,5.27,5.24,4.85,4.83,4.83,4.83,4.83,4.83,4.83,4.83,4.83,4.83,4.83,4.83,4.83,4.83,4.83,4.83,4.83,4.83,4.83,4.83,4.83,4.83,4.83,4.83,4.83,4.83,4.83,4.83,4.83,4.83,4.83,4.83,4.83,4.83,4.83,4.83,4.83,4.83,4.83,4.83,4.83,4.85,4.87,4.87,4.88,4.93,4.89,4.87,4.84,4.83,4.82,4.78,4.77,4.78,4.77,4.77,4.77,4.76,4.75,4.72,4.72,4.72,4.72,4.72,4.71,4.62,4.57,4.34,4.24,4.23,4.20,4.20,4.20,4.21,4.21,4.20,4.16,4.11,4.08,4.01,3.83,3.82,3.81,3.77,3.77,3.76,3.74,3.71,3.69,3.67,3.65,3.63,3.61,3.52,3.46,3.44,3.41,3.33,3.32,3.31,3.31,3.22,3.21,3.21,3.18,3.17,3.16,3.15,3.15,3.13,3.08,3.01,3.00,2.89,2.88,2.88,2.87,2.82,2.78,2.75,2.72,2.71,2.70,2.70,2.69,2.68,2.66,2.63,2.62,2.59,2.54,2.52,2.51,2.51,2.51,2.48,2.45,2.43,2.41,2.40,2.39,2.38,2.37,2.36,2.35,2.34,2.32,2.31,2.27,2.26,2.25,2.24,2.23,2.22,2.22,2.21,2.20,2.18,2.18,2.17,2.17,2.16,2.16,2.16,2.15,2.15,2.14,2.14,2.14,2.14,2.12,2.12,2.12,2.12,2.11,2.11,2.11,2.11,2.11,1.94,1.90,1.90,1.90,1.89,1.89,1.88,1.87,1.86,1.84,1.83,1.83,1.83,1.82,1.80,1.79,1.79,1.78,1.77,1.76,1.75,1.74,1.73,1.73,1.72,1.71,1.69,1.68,1.68,1.67,1.66,1.66,1.65,1.65,1.65,1.64,1.63,1.63,1.62,1.62,1.61,1.60,1.59,1.59,1.58,1.57,1.56,1.55,1.55,1.55,1.54,1.55,1.54,1.54,1.52,1.50,1.49,1.49,1.48,1.48,1.46,1.45,1.45,1.45,1.45,1.44,1.45,1.45,1.45,1.45,1.45,1.45,1.45,1.45,1.45,1.45,1.46,1.46
8.45,8.45,8.45,8.44,8.44,8.45,8.45,8.45,8.45,8.45,8.45,8.45,8.45,8.45,8.44,8.35,8.51,8.53,8.36,8.28,8.20,8.19,8.38,8.48,8.37,8.40,8.46,8.47,8.50,8.60,8.69,8.74,8.81,8.77,8.89,8.89,8.89,8.90,8.91,8.91,8.90,8.91,8.89,8.89,8.91,8.97,9.06,9.10,9.10,9.06,9.00,8.99,9.02,9.06,9.09,9.12,9.16,9.18,9.19,9.20,9.22,9.23,9.29,9.31,9.35,9.44,9.67,9.89,9.89,9.89,9.89,9.89,9.89,9.90,9.90,9.90,9.90,9.91,9.93,9.97,9.94,9.94,9.91,9.90,9.90,9.91,9.92,9.91,9.90,9.90,9.89,9.89,9.89,9.88,9.88,9.88,9.88,9.88,9.88,9.88,9.88,9.88,9.88,9.88,9.88,9.88,9.87,9.87,9.86,9.85,9.86,9.91,9.91,9.91,9.91,9.91,9.91,9.91,9.91,9.91,9.91,9.91,9.91,9.91,9.92,9.92,9.92,9.91,9.90,9.90,9.89,9.90,9.91,9.91,9.92,9.93,9.93,9.91,9.94,9.92,9.91,9.91,9.91,9.92,9.90,9.89,9.87,9.87,9.87,9.88,9.87,9.86,9.84,9.73,9.47,9.61,9.62,9.77,9.83,9.81,9.84,9.81,9.71,9.77,9.85,9.78,9.71,9.70,9.81,9.86,9.80,9.77,9.77,9.84,9.91,9.88,9.88,9.89,9.81,9.78,9.70,9.64,9.63,9.62,9.62,9.62,9.62,9.63,9.64,9.75,9.89,9.85,9.85,9.86,9.87,9.86,9.86,9.86,9.85,9.82,9.73,9.83,9.81,9.78,9.73,9.82,9.78,9.67,9.62,9.62,9.62,9.62,9.61,9.57,9.56,9.56,9.43,9.41,9.40,9.39,9.42,9.57,9.64,9.89,9.88,9.88,9.87,9.85,9.71,9.67,9.67,9.80,9.68,9.68,9.82,9.89,9.89,9.90,9.90,9.90,9.90,9.90,9.90,9.90,9.90,9.90,9.90,9.89,9.86,9.84,9.85,9.85,9.85,9.84,9.79,9.84,9.87,9.84,9.32,7.19,7.09,5.83,5.85,5.86,5.89,5.90,5.90,5.89,5.87,5.81,5.81,5.80,5.79,5.78,5.79,5.78,5.80,5.79,5.80,5.80,5.79,5.79,5.76,5.73,5.67,5.50,5.48,5.48,5.48,5.48,5.48,5.48,5.48,5.48,5.48,5.48,5.48,5.48,5.48,5.48,5.48,5.48,5.48,5.48,5.48,5.48,5.48,5.48,5.48,5.48,5.48,5.48,5.48,5.48,5.48,5.48,5.48,5.48,5.47,5.47,5.47,5.47,5.47,5.47,5.32,5.28,5.28,5.28,5.28,5.25,5.26,5.25,5.27,5.25,5.24,5.23,5.23,5.27,5.27,5.24,4.85,4.83,4.83,4.83,4.83,4.83,4.83,4.83,4.83,4.83,4.83,4.83,4.83,4.83,4.83,4.83,4.83,4.83,4.83,4.83,4.83,4.83,4.83,4.83,4.83,4.83,4.83,4.83,4.83,4.83,4.83,4.83,4.83,4.83,4.83,4.83,4.83,4.83,4.83,4.83,4.83,4.85,4.87,4.87,4.88,4.89,4.87,4.86,4.84,4.84,4.81,4.78,4.78,4.78,4.78,4.78,4.78,4.77,4.75,4.72,4.72,4.72,4.72,4.72,4.70,4.59,4.59,4.34,4.26,4.24,4.21,4.21,4.21,4.21,4.20,4.20,4.16,4.11,4.10,4.05,3.85,3.84,3.82,3.77,3.77,3.75,3.74,3.73,3.68,3.67,3.67,3.64,3.58,3.49,3.46,3.45,3.39,3.33,3.33,3.32,3.31,3.23,3.22,3.20,3.16,3.15,3.16,3.14,3.13,3.13,3.06,3.00,3.00,2.89,2.89,2.90,2.88,2.86,2.81,2.78,2.74,2.73,2.72,2.71,2.70,2.67,2.66,2.63,2.62,2.58,2.53,2.52,2.51,2.51,2.50,2.48,2.45,2.43,2.41,2.40,2.39,2.38,2.37,2.36,2.35,2.34,2.33,2.31,2.27,2.26,2.25,2.24,2.24,2.23,2.22,2.21,2.20,2.18,2.18,2.17,2.17,2.16,2.16,2.15,2.15,2.15,2.15,2.14,2.14,2.14,2.13,2.12,2.12,2.12,2.12,2.12,2.11,2.11,2.11,1.93,1.89,1.89,1.89,1.89,1.89,1.88,1.87,1.85,1.84,1.83,1.83,1.82,1.82,1.80,1.79,1.78,1.78,1.77,1.76,1.75,1.74,1.73,1.73,1.72,1.71,1.69,1.68,1.67,1.66,1.65,1.65,1.65,1.65,1.65,1.64,1.63,1.63,1.62,1.61,1.61,1.60,1.60,1.59,1.58,1.56,1.56,1.56,1.55,1.55,1.54,1.54,1.54,1.54,1.52,1.50,1.49,1.49,1.48,1.47,1.46,1.45,1.45,1.44,1.44,1.44,1.45,1.45,1.45,1.45,1.45,1.45,1.45,1.45,1.45,1.45,1.46,1.46
8.44,8.44,8.43,8.43,8.43,8.43,8.43,8.44,8.44,8.44,8.44,8.44,8.44,8.41,8.41,8.36,8.41,8.45,8.32,8.27,8.24,8.32,8.40,8.58,8.55,8.57,8.54,8.55,8.59,8.68,8.71,8.83,8.81,8.77,8.86,8.89,8.89,8.90,8.90,8.93,9.07,9.08,9.03,8.94,8.95,9.07,9.11,9.13,9.15,9.06,8.96,8.94,9.01,9.07,9.10,9.10,9.10,9.09,9.12,9.19,9.16,9.21,9.32,9.42,9.47,9.57,9.75,9.89,9.90,9.90,9.89,9.89,9.90,9.90,9.90,9.90,9.90,9.92,9.94,9.93,9.94,9.94,9.91,9.91,9.91,9.91,9.91,9.91,9.90,9.90,9.90,9.89,9.89,9.89,9.89,9.89,9.89,9.89,9.88,9.88,9.88,9.88,9.88,9.88,9.88,9.88,9.88,9.87,9.86,9.86,9.87,9.91,9.91,9.91,9.91,9.91,9.91,9.91,9.91,9.91,9.91,9.91,9.91,9.91,9.92,9.92,9.91,9.91,9.91,9.90,9.88,9.89,9.90,9.91,9.91,9.93,9.93,9.92,9.93,9.92,9.92,9.92,9.91,9.92,9.92,9.92,9.88,9.83,9.86,9.86,9.88,9.88,9.86,9.78,9.55,9.64,9.63,9.70,9.77,9.72,9.84,9.79,9.68,9.68,9.83,9.71,9.68,9.69,9.81,9.85,9.86,9.82,9.83,9.87,9.93,9.84,9.85,9.85,9.72,9.67,9.64,9.63,9.63,9.62,9.62,9.62,9.62,9.63,9.63,9.75,9.83,9.85,9.85,9.87,9.87,9.86,9.86,9.86,9.79,9.70,9.66,9.68,9.67,9.66,9.66,9.66,9.65,9.63,9.61,9.61,9.61,9.59,9.40,9.40,9.41,9.40,9.40,9.39,9.40,9.41,9.56,9.59,9.63,9.89,9.91,9.90,9.89,9.86,9.71,9.64,9.64,9.68,9.66,9.66,9.72,9.86,9.89,9.90,9.90,9.90,9.90,9.91,9.90,9.90,9.90,9.90,9.90,9.89,9.84,9.83,9.84,9.85,9.84,9.84,9.68,9.71,9.77,9.86,9.09,7.45,7.34,5.83,5.82,5.83,5.87,5.90,5.90,5.90,5.87,5.81,5.81,5.81,5.80,5.80,5.80,5.80,5.80,5.80,5.80,5.79,5.75,5.74,5.73,5.72,5.70,5.51,5.48,5.48,5.48,5.48,5.48,5.48,5.48,5.48,5.48,5.48,5.48,5.48,5.48,5.48,5.48,5.48,5.48,5.48,5.48,5.48,5.48,5.48,5.48,5.48,5.48,5.48,5.48,5.48,5.48,5.48,5.48,5.48,5.47,5.47,5.47,5.47,5.47,5.47,5.30,5.28,5.28,5.28,5.28,5.26,5.26,5.26,5.27,5.27,5.23,5.23,5.22,5.26,5.26,5.24,4.86,4.83,4.83,4.83,4.83,4.83,4.83,4.83,4.83,4.83,4.83,4.83,4.83,4.83,4.83,4.83,4.83,4.83,4.83,4.83,4.83,4.83,4.83,4.83,4.83,4.83,4.83,4.83,4.83,4.83,4.83,4.83,4.83,4.83,4.83,4.83,4.83,4.83,4.83,4.83,4.83,4.85,4.87,4.87,4.87,4.88,4.88,4.87,4.85,4.84,4.83,4.79,4.80,4.78,4.78,4.78,4.78,4.78,4.75,4.72,4.72,4.72,4.72,4.72,4.70,4.61,4.57,4.34,4.26,4.25,4.21,4.21,4.21,4.21,4.18,4.20,4.16,4.11,4.11,4.06,3.89,3.85,3.83,3.78,3.77,3.75,3.76,3.75,3.71,3.68,3.67,3.63,3.53,3.49,3.46,3.46,3.40,3.33,3.33,3.32,3.32,3.24,3.20,3.20,3.18,3.17,3.13,3.13,3.12,3.11,3.04,3.00,3.00,2.89,2.89,2.89,2.88,2.84,2.81,2.80,2.78,2.75,2.74,2.72,2.71,2.68,2.65,2.63,2.61,2.57,2.54,2.52,2.52,2.52,2.52,2.46,2.42,2.41,2.41,2.40,2.39,2.39,2.38,2.36,2.33,2.34,2.31,2.30,2.28,2.27,2.26,2.24,2.24,2.23,2.22,2.20,2.19,2.19,2.19,2.17,2.17,2.16,2.16,2.16,2.15,2.15,2.15,2.15,2.14,2.14,2.13,2.12,2.12,2.12,2.12,2.12,2.12,2.11,2.11,1.91,1.89,1.89,1.89,1.89,1.89,1.88,1.87,1.85,1.84,1.83,1.82,1.82,1.81,1.80,1.79,1.78,1.78,1.77,1.76,1.75,1.74,1.73,1.72,1.72,1.71,1.70,1.67,1.66,1.66,1.65,1.65,1.65,1.65,1.65,1.64,1.63,1.62,1.61,1.61,1.60,1.60,1.60,1.59,1.59,1.58,1.56,1.55,1.55,1.55,1.54,1.54,1.54,1.54,1.51,1.50,1.49,1.49,1.48,1.47,1.45,1.45,1.45,1.44,1.44,1.44,1.44,1.44,1.44,1.44,1.45,1.45,1.45,1.45,1.45,1.45,1.46,1.46
8.43,8.43,8.43,8.43,8.43,8.43,8.43,8.43,8.44,8.44,8.44,8.44,8.43,8.41,8.41,8.40,8.39,8.39,8.33,8.27,8.18,8.17,8.40,8.57,8.57,8.57,8.62,8.67,8.67,8.69,8.73,8.84,8.81,8.76,8.86,8.88,8.89,8.89,8.91,8.95,9.09,9.10,9.06,8.96,9.04,9.09,9.22,9.17,9.24,9.16,8.99,8.98,9.06,9.08,9.08,9.10,9.11,9.06,9.09,9.15,9.16,9.26,9.43,9.54,9.57,9.66,9.89,9.91,9.94,9.90,9.90,9.90,9.90,9.90,9.90,9.90,9.91,9.93,9.94,9.94,9.93,9.93,9.91,9.91,9.91,9.91,9.91,9.91,9.90,9.90,9.90,9.90,9.90,9.90,9.90,9.90,9.90,9.89,9.89,9.89,9.89,9.89,9.88,9.88,9.88,9.88,9.88,9.88,9.87,9.87,9.88,9.91,9.91,9.91,9.91,9.91,9.91,9.91,9.91,9.91,9.91,9.91,9.91,9.91,9.92,9.92,9.91,9.91,9.91,9.89,9.87,9.87,9.89,9.90,9.91,9.95,9.93,9.93,9.93,9.92,9.92,9.92,9.91,9.91,9.93,9.94,9.90,9.78,9.79,9.84,9.86,9.88,9.86,9.85,9.65,9.71,9.67,9.75,9.75,9.72,9.85,9.88,9.70,9.72,9.85,9.78,9.74,9.68,9.75,9.83,9.85,9.77,9.82,9.89,9.90,9.77,9.77,9.75,9.65,9.64,9.63,9.63,9.63,9.62,9.62,9.62,9.62,9.63,9.63,9.68,9.71,9.84,9.87,9.88,9.87,9.87,9.87,9.87,9.77,9.67,9.64,9.64,9.64,9.63,9.63,9.63,9.62,9.60,9.56,9.55,9.56,9.54,9.38,9.38,9.39,9.41,9.43,9.43,9.45,9.56,9.60,9.61,9.63,9.88,9.90,9.91,9.89,9.86,9.72,9.63,9.63,9.79,9.79,9.68,9.81,9.89,9.89,9.90,9.90,9.90,9.90,9.91,9.94,9.90,9.90,9.90,9.90,9.89,9.83,9.80,9.81,9.84,9.82,9.86,9.64,9.67,9.74,9.85,9.01,8.64,7.45,5.91,5.83,5.87,5.89,5.90,5.90,5.90,5.89,5.84,5.81,5.81,5.81,5.81,5.81,5.81,5.81,5.81,5.80,5.80,5.76,5.73,5.71,5.72,5.71,5.51,5.48,5.48,5.48,5.48,5.48,5.48,5.48,5.48,5.48,5.48,5.48,5.48,5.48,5.48,5.48,5.48,5.48,5.48,5.48,5.48,5.48,5.48,5.48,5.48,5.48,5.48,5.48,5.48,5.48,5.48,5.48,5.48,5.48,5.47,5.47,5.47,5.47,5.47,5.31,5.28,5.28,5.25,5.27,5.23,5.23,5.24,5.27,5.28,5.24,5.25,5.23,5.25,5.25,5.24,4.86,4.83,4.83,4.83,4.83,4.83,4.83,4.83,4.83,4.83,4.83,4.83,4.83,4.83,4.83,4.83,4.83,4.83,4.83,4.83,4.83,4.83,4.83,4.83,4.83,4.83,4.83,4.83,4.83,4.83,4.83,4.83,4.83,4.83,4.83,4.83,4.83,4.83,4.83,4.83,4.83,4.85,4.87,4.87,4.87,4.87,4.87,4.88,4.85,4.84,4.82,4.80,4.79,4.78,4.78,4.78,4.78,4.78,4.76,4.72,4.72,4.72,4.72,4.72,4.70,4.61,4.52,4.37,4.28,4.25,4.21,4.21,4.21,4.21,4.20,4.20,4.16,4.13,4.11,4.07,3.98,3.87,3.86,3.84,3.83,3.81,3.79,3.77,3.72,3.70,3.69,3.63,3.51,3.50,3.47,3.46,3.40,3.34,3.34,3.34,3.30,3.25,3.21,3.20,3.19,3.13,3.11,3.11,3.10,3.09,3.02,2.99,2.99,2.90,2.90,2.90,2.88,2.85,2.83,2.82,2.80,2.78,2.76,2.73,2.72,2.67,2.65,2.62,2.60,2.58,2.56,2.54,2.53,2.52,2.52,2.46,2.43,2.41,2.42,2.42,2.40,2.39,2.39,2.39,2.35,2.33,2.32,2.31,2.29,2.28,2.27,2.26,2.25,2.23,2.20,2.20,2.19,2.19,2.19,2.17,2.17,2.16,2.16,2.16,2.16,2.16,2.15,2.14,2.14,2.13,2.13,2.12,2.12,2.12,2.12,2.12,2.12,2.11,2.11,1.90,1.89,1.89,1.89,1.89,1.88,1.88,1.87,1.85,1.84,1.83,1.82,1.82,1.81,1.80,1.79,1.78,1.77,1.76,1.76,1.75,1.74,1.73,1.72,1.71,1.71,1.70,1.68,1.67,1.66,1.66,1.65,1.65,1.65,1.65,1.64,1.63,1.62,1.61,1.61,1.60,1.60,1.60,1.59,1.59,1.58,1.56,1.55,1.55,1.55,1.54,1.54,1.54,1.52,1.51,1.50,1.49,1.49,1.48,1.47,1.45,1.45,1.45,1.44,1.44,1.44,1.44,1.44,1.44,1.44,1.45,1.45,1.45,1.45,1.45,1.45,1.45,1.46
8.39,8.39,8.39,8.40,8.39,8.42,8.42,8.40,8.41,8.42,8.44,8.43,8.43,8.42,8.41,8.40,8.38,8.33,8.32,8.31,8.26,8.21,8.30,8.50,8.59,8.58,8.65,8.65,8.61,8.69,8.71,8.74,8.74,8.76,8.87,8.89,8.89,8.89,8.90,8.91,9.05,9.10,9.09,9.02,9.15,9.29,9.34,9.24,9.28,9.13,9.13,9.17,9.13,9.11,9.11,9.11,9.10,9.04,9.10,9.28,9.33,9.38,9.49,9.55,9.59,9.72,9.87,9.95,9.94,9.91,9.90,9.90,9.90,9.90,9.90,9.90,9.93,9.93,9.94,9.94,9.93,9.93,9.91,9.91,9.91,9.91,9.91,9.91,9.90,9.90,9.90,9.90,9.90,9.90,9.90,9.90,9.90,9.89,9.89,9.89,9.89,9.88,9.88,9.88,9.88,9.88,9.88,9.88,9.87,9.88,9.88,9.91,9.91,9.91,9.91,9.91,9.91,9.91,9.91,9.91,9.91,9.91,9.91,9.92,9.92,9.92,9.91,9.91,9.91,9.87,9.86,9.86,9.89,9.90,9.90,9.95,9.94,9.93,9.93,9.93,9.92,9.92,9.92,9.91,9.92,9.96,9.90,9.74,9.73,9.74,9.77,9.77,9.77,9.83,9.66,9.81,9.74,9.85,9.86,9.78,9.89,9.90,9.77,9.82,9.91,9.88,9.87,9.72,9.69,9.74,9.83,9.81,9.84,9.89,9.90,9.73,9.65,9.64,9.63,9.63,9.63,9.63,9.63,9.62,9.62,9.62,9.62,9.63,9.63,9.63,9.74,9.94,9.90,9.87,9.86,9.86,9.89,9.89,9.76,9.65,9.63,9.64,9.63,9.63,9.63,9.63,9.58,9.55,9.43,9.43,9.41,9.40,9.39,9.40,9.41,9.52,9.56,9.58,9.60,9.60,9.62,9.62,9.63,9.87,9.88,9.91,9.90,9.87,9.75,9.65,9.65,9.71,9.67,9.66,9.83,9.89,9.89,9.90,9.90,9.91,9.91,9.91,9.90,9.90,9.90,9.90,9.90,9.90,9.89,9.79,9.72,9.69,9.68,9.78,9.64,9.63,9.74,9.85,9.01,7.85,7.63,5.99,5.83,5.88,5.90,5.90,5.90,5.90,5.89,5.86,5.82,5.81,5.81,5.81,5.81,5.81,5.81,5.81,5.81,5.81,5.77,5.73,5.71,5.71,5.71,5.52,5.48,5.48,5.48,5.48,5.48,5.48,5.48,5.48,5.48,5.48,5.48,5.48,5.48,5.48,5.48,5.48,5.48,5.48,5.48,5.48,5.48,5.48,5.48,5.48,5.48,5.48,5.48,5.48,5.48,5.48,5.48,5.48,5.48,5.47,5.47,5.47,5.47,5.47,5.30,5.28,5.28,5.24,5.26,5.23,5.22,5.25,5.28,5.28,5.24,5.26,5.26,5.25,5.25,5.24,4.86,4.83,4.83,4.83,4.83,4.83,4.83,4.83,4.83,4.83,4.83,4.83,4.83,4.83,4.83,4.83,4.83,4.83,4.83,4.83,4.83,4.83,4.83,4.83,4.83,4.83,4.83,4.83,4.83,4.83,4.83,4.83,4.83,4.83,4.83,4.83,4.83,4.83,4.83,4.84,4.84,4.85,4.87,4.87,4.87,4.87,4.87,4.89,4.88,4.87,4.84,4.82,4.81,4.78,4.78,4.78,4.78,4.78,4.76,4.72,4.72,4.72,4.72,4.72,4.70,4.61,4.53,4.34,4.27,4.26,4.21,4.21,4.21,4.21,4.21,4.21,4.17,4.11,4.10,4.06,3.99,3.91,3.92,3.92,3.92,3.86,3.82,3.79,3.76,3.75,3.74,3.68,3.51,3.51,3.47,3.47,3.39,3.34,3.35,3.35,3.30,3.26,3.22,3.19,3.12,3.09,3.08,3.08,3.07,3.06,3.00,2.99,2.98,2.90,2.90,2.89,2.87,2.85,2.82,2.81,2.80,2.79,2.77,2.74,2.71,2.67,2.65,2.63,2.60,2.59,2.57,2.56,2.54,2.52,2.49,2.45,2.44,2.43,2.43,2.43,2.43,2.42,2.41,2.38,2.37,2.33,2.32,2.31,2.30,2.28,2.27,2.26,2.24,2.23,2.20,2.20,2.19,2.19,2.19,2.18,2.17,2.16,2.16,2.16,2.16,2.16,2.15,2.14,2.14,2.13,2.13,2.12,2.12,2.12,2.12,2.12,2.12,2.11,2.10,1.89,1.89,1.89,1.89,1.88,1.88,1.87,1.87,1.85,1.84,1.83,1.82,1.82,1.81,1.80,1.79,1.78,1.77,1.77,1.76,1.75,1.74,1.73,1.72,1.71,1.70,1.69,1.68,1.67,1.66,1.66,1.65,1.65,1.65,1.64,1.64,1.63,1.62,1.61,1.60,1.60,1.59,1.59,1.59,1.59,1.59,1.58,1.55,1.55,1.54,1.54,1.54,1.52,1.51,1.51,1.50,1.49,1.49,1.48,1.47,1.46,1.45,1.45,1.44,1.44,1.44,1.44,1.44,1.44,1.45,1.45,1.45,1.45,1.45,1.45,1.45,1.45,1.46
8.39,8.38,8.38,8.36,8.35,8.35,8.36,8.36,8.37,8.38,8.42,8.43,8.43,8.43,8.44,8.45,8.45,8.44,8.24,8.27,8.30,8.41,8.46,8.61,8.63,8.64,8.67,8.67,8.68,8.73,8.84,8.86,8.83,8.84,8.89,8.89,8.89,8.89,8.89,8.90,8.93,9.04,9.06,8.99,9.24,9.32,9.49,9.43,9.32,9.19,9.16,9.12,9.06,9.00,9.06,9.11,9.10,9.05,9.14,9.32,9.42,9.48,9.56,9.58,9.59,9.73,9.87,9.96,9.94,9.91,9.90,9.90,9.92,9.89,9.90,9.90,9.94,9.93,9.93,9.93,9.93,9.93,9.91,9.90,9.90,9.90,9.91,9.91,9.90,9.90,9.90,9.90,9.90,9.90,9.90,9.90,9.90,9.89,9.89,9.89,9.88,9.88,9.88,9.88,9.88,9.88,9.88,9.88,9.87,9.89,9.89,9.91,9.91,9.91,9.91,9.91,9.91,9.91,9.91,9.91,9.91,9.91,9.91,9.91,9.92,9.92,9.92,9.91,9.91,9.84,9.85,9.85,9.89,9.89,9.90,9.94,9.93,9.93,9.93,9.93,9.92,9.93,9.92,9.91,9.92,9.93,9.89,9.80,9.63,9.55,9.56,9.59,9.59,9.66,9.64,9.78,9.82,9.89,9.89,9.87,9.90,9.93,9.88,9.84,9.89,9.90,9.90,9.85,9.84,9.85,9.91,9.92,9.91,9.90,9.90,9.75,9.66,9.63,9.63,9.64,9.63,9.63,9.63,9.62,9.62,9.62,9.62,9.62,9.63,9.63,9.75,9.93,9.79,9.83,9.85,9.84,9.91,9.88,9.74,9.64,9.64,9.67,9.64,9.63,9.63,9.63,9.55,9.43,9.41,9.39,9.38,9.38,9.39,9.51,9.59,9.60,9.61,9.62,9.62,9.62,9.62,9.62,9.63,9.87,9.85,9.89,9.89,9.88,9.87,9.81,9.66,9.81,9.68,9.67,9.84,9.90,9.90,9.90,9.90,9.90,9.90,9.90,9.90,9.90,9.90,9.90,9.90,9.90,9.89,9.87,9.83,9.74,9.69,9.69,9.65,9.75,9.81,9.85,9.03,7.82,7.62,6.21,5.94,5.93,5.91,5.90,5.90,5.90,5.90,5.88,5.83,5.81,5.81,5.81,5.81,5.81,5.81,5.81,5.81,5.81,5.77,5.74,5.72,5.72,5.71,5.51,5.48,5.48,5.48,5.48,5.48,5.48,5.48,5.48,5.48,5.48,5.48,5.48,5.48,5.48,5.48,5.48,5.48,5.48,5.48,5.48,5.48,5.48,5.48,5.48,5.48,5.48,5.48,5.48,5.48,5.48,5.48,5.48,5.48,5.48,5.48,5.48,5.47,5.47,5.31,5.28,5.28,5.27,5.28,5.26,5.27,5.28,5.28,5.27,5.24,5.27,5.27,5.24,5.24,5.23,4.86,4.83,4.83,4.83,4.83,4.83,4.83,4.83,4.83,4.83,4.83,4.83,4.83,4.83,4.83,4.83,4.83,4.83,4.83,4.83,4.83,4.83,4.83,4.83,4.83,4.83,4.83,4.83,4.83,4.83,4.83,4.83,4.83,4.83,4.83,4.83,4.83,4.83,4.83,4.84,4.84,4.85,4.86,4.87,4.87,4.87,4.87,4.87,4.88,4.88,4.84,4.83,4.81,4.79,4.78,4.78,4.78,4.77,4.77,4.74,4.72,4.72,4.72,4.72,4.70,4.61,4.54,4.35,4.28,4.26,4.23,4.21,4.21,4.21,4.21,4.21,4.19,4.10,4.08,4.04,3.99,3.99,3.97,3.93,3.91,3.89,3.87,3.80,3.79,3.79,3.77,3.64,3.52,3.48,3.47,3.46,3.38,3.35,3.32,3.33,3.31,3.26,3.26,3.24,3.23,3.06,3.05,3.05,3.04,3.02,2.98,2.99,2.97,2.92,2.91,2.90,2.88,2.85,2.83,2.81,2.80,2.80,2.78,2.74,2.72,2.69,2.65,2.64,2.61,2.59,2.57,2.56,2.54,2.52,2.50,2.47,2.43,2.42,2.43,2.43,2.42,2.42,2.42,2.39,2.36,2.34,2.33,2.31,2.30,2.28,2.27,2.26,2.24,2.24,2.23,2.20,2.19,2.19,2.19,2.19,2.18,2.16,2.16,2.16,2.16,2.16,2.16,2.15,2.14,2.14,2.13,2.12,2.12,2.12,2.12,2.12,2.12,2.11,2.10,1.89,1.88,1.89,1.88,1.88,1.87,1.87,1.86,1.86,1.84,1.83,1.83,1.82,1.81,1.79,1.78,1.78,1.77,1.76,1.76,1.75,1.74,1.73,1.72,1.72,1.71,1.69,1.68,1.67,1.66,1.65,1.65,1.65,1.65,1.64,1.63,1.63,1.61,1.61,1.60,1.59,1.59,1.59,1.59,1.59,1.59,1.58,1.56,1.55,1.54,1.54,1.53,1.51,1.50,1.50,1.50,1.49,1.49,1.48,1.47,1.46,1.45,1.45,1.45,1.44,1.44,1.44,1.44,1.44,1.45,1.45,1.45,1.45,1.45,1.45,1.45,1.45,1.46
8.37,8.36,8.35,8.34,8.34,8.33,8.32,8.31,8.30,8.31,8.38,8.42,8.43,8.44,8.45,8.45,8.45,8.45,8.42,8.36,8.33,8.43,8.54,8.68,8.72,8.68,8.68,8.68,8.68,8.69,8.76,8.88,8.88,8.88,8.89,8.88,8.88,8.88,8.88,8.89,8.89,8.94,8.98,9.03,9.27,9.33,9.55,9.46,9.35,9.27,9.16,9.11,9.02,8.95,9.02,9.11,9.12,9.12,9.28,9.38,9.42,9.47,9.53,9.61,9.66,9.74,9.87,9.92,9.94,9.91,9.90,9.90,9.89,9.87,9.89,9.90,9.94,9.93,9.93,9.93,9.93,9.92,9.90,9.90,9.90,9.90,9.90,9.90,9.90,9.90,9.90,9.90,9.90,9.90,9.90,9.90,9.90,9.89,9.89,9.89,9.88,9.88,9.88,9.88,9.88,9.88,9.88,9.87,9.86,9.89,9.89,9.91,9.91,9.91,9.91,9.91,9.91,9.91,9.91,9.91,9.91,9.91,9.91,9.91,9.91,9.92,9.92,9.91,9.90,9.79,9.86,9.82,9.88,9.87,9.88,9.92,9.93,9.93,9.93,9.93,9.93,9.93,9.93,9.96,9.93,9.92,9.89,9.79,9.62,9.50,9.43,9.43,9.44,9.62,9.63,9.68,9.76,9.89,9.90,9.89,9.90,9.91,9.89,9.87,9.89,9.94,9.92,9.90,9.89,9.91,9.92,9.96,9.93,9.93,9.88,9.79,9.70,9.63,9.63,9.67,9.67,9.65,9.66,9.63,9.62,9.62,9.62,9.62,9.63,9.63,9.69,9.74,9.82,9.82,9.82,9.83,9.87,9.84,9.66,9.65,9.66,9.73,9.78,9.64,9.62,9.62,9.58,9.46,9.42,9.40,9.38,9.38,9.40,9.39,9.56,9.60,9.61,9.62,9.62,9.62,9.62,9.62,9.63,9.69,9.72,9.86,9.89,9.89,9.89,9.86,9.86,9.88,9.87,9.81,9.87,9.90,9.90,9.90,9.90,9.89,9.89,9.90,9.90,9.90,9.90,9.90,9.90,9.90,9.90,9.89,9.88,9.79,9.77,9.81,9.68,9.80,9.88,9.87,9.39,8.10,7.83,6.25,6.01,5.94,5.91,5.91,5.90,5.90,5.90,5.89,5.83,5.82,5.81,5.81,5.82,5.81,5.81,5.81,5.81,5.81,5.79,5.78,5.76,5.73,5.72,5.50,5.48,5.48,5.48,5.48,5.48,5.48,5.48,5.48,5.48,5.48,5.48,5.48,5.48,5.48,5.48,5.48,5.48,5.48,5.48,5.48,5.48,5.48,5.48,5.48,5.48,5.48,5.48,5.48,5.48,5.48,5.48,5.48,5.48,5.48,5.48,5.48,5.48,5.47,5.30,5.28,5.28,5.28,5.28,5.28,5.28,5.28,5.28,5.27,5.27,5.27,5.27,5.24,5.23,5.22,4.86,4.83,4.83,4.83,4.83,4.83,4.83,4.83,4.83,4.83,4.83,4.83,4.83,4.83,4.83,4.83,4.83,4.83,4.83,4.83,4.83,4.83,4.83,4.83,4.83,4.83,4.83,4.83,4.83,4.83,4.83,4.83,4.83,4.83,4.83,4.83,4.83,4.83,4.83,4.84,4.84,4.86,4.86,4.87,4.87,4.87,4.87,4.89,4.89,4.88,4.85,4.82,4.81,4.78,4.78,4.78,4.77,4.76,4.73,4.73,4.73,4.72,4.72,4.72,4.70,4.59,4.54,4.36,4.29,4.25,4.21,4.21,4.21,4.21,4.21,4.21,4.20,4.10,4.09,4.05,4.01,4.02,3.97,3.92,3.89,3.90,3.85,3.83,3.80,3.79,3.78,3.60,3.52,3.48,3.47,3.45,3.41,3.35,3.34,3.33,3.32,3.28,3.27,3.26,3.25,3.06,3.03,3.04,3.03,3.01,2.99,2.98,2.97,2.93,2.91,2.90,2.88,2.85,2.83,2.81,2.80,2.79,2.78,2.76,2.73,2.69,2.65,2.63,2.62,2.60,2.58,2.56,2.54,2.51,2.50,2.48,2.44,2.43,2.43,2.43,2.42,2.42,2.41,2.41,2.38,2.34,2.33,2.31,2.31,2.29,2.28,2.27,2.25,2.25,2.25,2.23,2.20,2.19,2.19,2.19,2.18,2.17,2.16,2.16,2.16,2.16,2.16,2.15,2.15,2.15,2.14,2.13,2.12,2.12,2.12,2.12,2.11,2.10,2.09,1.91,1.88,1.88,1.88,1.88,1.87,1.87,1.86,1.86,1.84,1.83,1.83,1.82,1.80,1.79,1.78,1.78,1.77,1.77,1.76,1.75,1.74,1.73,1.73,1.72,1.71,1.69,1.67,1.67,1.66,1.65,1.65,1.65,1.64,1.64,1.63,1.62,1.61,1.60,1.59,1.59,1.59,1.59,1.57,1.58,1.57,1.57,1.56,1.55,1.55,1.53,1.52,1.51,1.51,1.50,1.50,1.50,1.49,1.48,1.47,1.46,1.46,1.45,1.45,1.44,1.44,1.45,1.45,1.45,1.45,1.45,1.45,1.45,1.45,1.45,1.45,1.45,1.45
8.34,8.33,8.33,8.33,8.33,8.32,8.32,8.31,8.30,8.28,8.35,8.39,8.42,8.45,8.46,8.46,8.46,8.47,8.46,8.43,8.44,8.45,8.49,8.64,8.73,8.69,8.68,8.68,8.68,8.72,8.82,8.87,8.88,8.89,8.89,8.86,8.76,8.74,8.73,8.75,8.78,8.83,8.89,9.00,9.38,9.55,9.58,9.54,9.45,9.36,9.20,9.11,9.03,8.93,9.00,9.09,9.06,9.09,9.26,9.42,9.53,9.53,9.62,9.73,9.80,9.85,9.88,9.90,9.90,9.90,9.90,9.90,9.89,9.75,9.90,9.92,9.93,9.93,9.93,9.93,9.93,9.91,9.90,9.90,9.90,9.90,9.90,9.90,9.90,9.90,9.90,9.90,9.90,9.90,9.90,9.90,9.90,9.89,9.89,9.89,9.88,9.88,9.88,9.88,9.88,9.88,9.88,9.84,9.82,9.89,9.90,9.91,9.91,9.91,9.91,9.91,9.91,9.91,9.91,9.91,9.91,9.91,9.91,9.91,9.91,9.92,9.92,9.93,9.90,9.79,9.64,9.68,9.76,9.84,9.85,9.89,9.92,9.93,9.93,9.93,9.93,9.92,9.92,9.94,9.94,9.90,9.89,9.78,9.60,9.57,9.38,9.39,9.39,9.61,9.62,9.65,9.66,9.87,9.89,9.90,9.90,9.90,9.90,9.89,9.89,9.93,9.91,9.93,9.90,9.91,9.93,9.93,9.94,9.91,9.83,9.75,9.70,9.64,9.63,9.71,9.71,9.70,9.71,9.63,9.62,9.62,9.62,9.62,9.63,9.63,9.64,9.66,9.67,9.68,9.67,9.68,9.75,9.80,9.67,9.74,9.83,9.88,9.88,9.79,9.62,9.62,9.59,9.58,9.56,9.59,9.60,9.56,9.39,9.38,9.39,9.41,9.45,9.60,9.62,9.62,9.62,9.62,9.63,9.69,9.81,9.86,9.89,9.89,9.89,9.89,9.88,9.89,9.89,9.88,9.88,9.90,9.90,9.89,9.89,9.89,9.89,9.89,9.90,9.90,9.90,9.90,9.90,9.90,9.90,9.89,9.89,9.86,9.86,9.87,9.75,9.87,9.89,9.89,9.71,9.09,7.98,6.20,5.98,5.92,5.91,5.91,5.90,5.90,5.90,5.90,5.86,5.82,5.81,5.83,5.85,5.83,5.84,5.81,5.81,5.81,5.80,5.80,5.77,5.74,5.76,5.50,5.48,5.48,5.48,5.48,5.48,5.48,5.48,5.48,5.48,5.48,5.48,5.48,5.48,5.48,5.48,5.48,5.48,5.48,5.48,5.48,5.48,5.48,5.48,5.48,5.48,5.48,5.48,5.48,5.48,5.48,5.48,5.48,5.48,5.48,5.48,5.48,5.48,5.47,5.31,5.28,5.28,5.28,5.28,5.28,5.28,5.28,5.28,5.28,5.27,5.25,5.24,5.22,5.22,5.22,4.87,4.83,4.83,4.83,4.83,4.83,4.83,4.83,4.83,4.83,4.83,4.83,4.83,4.83,4.83,4.83,4.83,4.83,4.83,4.83,4.83,4.83,4.83,4.83,4.83,4.83,4.83,4.83,4.83,4.83,4.83,4.83,4.83,4.83,4.83,4.83,4.83,4.83,4.84,4.84,4.84,4.86,4.86,4.87,4.87,4.87,4.87,4.89,4.88,4.88,4.86,4.82,4.79,4.78,4.78,4.78,4.77,4.77,4.74,4.75,4.75,4.73,4.72,4.72,4.70,4.61,4.54,4.36,4.27,4.25,4.21,4.21,4.21,4.21,4.23,4.21,4.20,4.10,4.08,4.06,4.01,4.01,3.95,3.89,3.86,3.87,3.84,3.81,3.80,3.79,3.58,3.55,3.50,3.49,3.48,3.44,3.44,3.39,3.36,3.35,3.34,3.31,3.29,3.25,3.24,3.12,3.04,3.05,3.04,3.01,3.00,2.97,2.96,2.93,2.91,2.89,2.89,2.87,2.84,2.82,2.81,2.80,2.78,2.76,2.74,2.68,2.67,2.64,2.62,2.60,2.58,2.55,2.52,2.50,2.49,2.47,2.44,2.43,2.43,2.43,2.42,2.41,2.41,2.41,2.39,2.34,2.34,2.32,2.31,2.30,2.28,2.28,2.25,2.25,2.25,2.24,2.20,2.19,2.19,2.19,2.18,2.18,2.17,2.16,2.16,2.16,2.15,2.15,2.15,2.15,2.14,2.13,2.13,2.12,2.11,2.11,2.09,2.08,2.08,1.91,1.87,1.87,1.87,1.87,1.87,1.87,1.86,1.86,1.84,1.83,1.82,1.81,1.80,1.79,1.78,1.78,1.77,1.77,1.76,1.76,1.75,1.73,1.72,1.72,1.71,1.69,1.68,1.67,1.66,1.65,1.65,1.65,1.64,1.64,1.63,1.62,1.61,1.60,1.59,1.58,1.58,1.57,1.57,1.57,1.57,1.57,1.56,1.56,1.55,1.54,1.52,1.51,1.51,1.50,1.50,1.49,1.49,1.48,1.47,1.46,1.46,1.45,1.45,1.45,1.44,1.45,1.45,1.45,1.45,1.45,1.45,1.45,1.45,1.45,1.45,1.45,1.45
8.34,8.33,8.33,8.32,8.32,8.32,8.31,8.30,8.29,8.28,8.22,8.35,8.41,8.46,8.49,8.50,8.50,8.47,8.53,8.48,8.37,8.40,8.46,8.62,8.72,8.68,8.69,8.69,8.68,8.70,8.73,8.79,8.87,8.88,8.88,8.82,8.73,8.69,8.71,8.79,8.72,8.76,8.86,8.96,9.39,9.64,9.62,9.58,9.51,9.42,9.28,9.14,9.03,8.93,8.96,9.03,9.08,9.10,9.17,9.41,9.58,9.64,9.70,9.81,9.87,9.88,9.88,9.89,9.89,9.90,9.90,9.89,9.89,9.77,9.87,9.93,9.93,9.93,9.93,9.93,9.93,9.91,9.90,9.90,9.90,9.90,9.90,9.90,9.90,9.90,9.90,9.90,9.90,9.90,9.90,9.90,9.90,9.90,9.90,9.91,9.91,9.91,9.91,9.91,9.90,9.89,9.88,9.75,9.76,9.87,9.90,9.91,9.91,9.91,9.91,9.91,9.91,9.91,9.91,9.91,9.91,9.91,9.91,9.91,9.91,9.91,9.92,9.94,9.89,9.78,9.58,9.60,9.67,9.75,9.76,9.90,9.93,9.93,9.93,9.92,9.92,9.92,9.92,9.94,9.93,9.90,9.89,9.74,9.61,9.52,9.39,9.39,9.39,9.61,9.62,9.63,9.63,9.87,9.89,9.89,9.90,9.92,9.93,9.91,9.90,9.91,9.91,9.90,9.90,9.91,9.91,9.90,9.91,9.91,9.88,9.87,9.70,9.65,9.64,9.68,9.68,9.67,9.67,9.63,9.63,9.63,9.62,9.62,9.62,9.62,9.62,9.63,9.63,9.63,9.63,9.63,9.63,9.64,9.71,9.83,9.86,9.89,9.89,9.82,9.62,9.62,9.62,9.61,9.61,9.61,9.61,9.57,9.42,9.38,9.38,9.40,9.55,9.59,9.62,9.62,9.62,9.62,9.63,9.70,9.82,9.89,9.89,9.90,9.90,9.89,9.89,9.90,9.90,9.89,9.89,9.89,9.89,9.89,9.89,9.89,9.88,9.89,9.89,9.90,9.90,9.90,9.90,9.90,9.90,9.90,9.89,9.89,9.89,9.89,9.78,9.89,9.89,9.89,9.82,9.35,8.21,6.20,6.03,5.93,5.91,5.91,5.90,5.90,5.90,5.90,5.87,5.83,5.82,5.83,5.84,5.83,5.83,5.81,5.81,5.81,5.81,5.81,5.78,5.74,5.74,5.50,5.48,5.48,5.48,5.48,5.48,5.48,5.48,5.48,5.48,5.48,5.48,5.48,5.48,5.48,5.48,5.48,5.48,5.48,5.48,5.48,5.48,5.48,5.48,5.48,5.48,5.48,5.48,5.48,5.48,5.48,5.48,5.48,5.48,5.48,5.48,5.47,5.47,5.47,5.30,5.28,5.28,5.28,5.28,5.28,5.28,5.28,5.28,5.27,5.27,5.26,5.25,5.22,5.22,5.21,4.87,4.83,4.83,4.83,4.83,4.83,4.83,4.83,4.83,4.83,4.83,4.83,4.83,4.83,4.83,4.83,4.83,4.83,4.83,4.83,4.83,4.83,4.83,4.83,4.83,4.83,4.83,4.83,4.83,4.83,4.83,4.83,4.83,4.83,4.83,4.83,4.83,4.83,4.84,4.84,4.84,4.85,4.85,4.87,4.87,4.86,4.86,4.86,4.89,4.88,4.85,4.81,4.78,4.78,4.78,4.78,4.78,4.77,4.76,4.77,4.77,4.76,4.72,4.72,4.70,4.61,4.53,4.36,4.28,4.25,4.22,4.21,4.21,4.21,4.24,4.22,4.20,4.10,4.07,4.04,3.98,3.98,3.92,3.88,3.85,3.87,3.84,3.80,3.76,3.63,3.56,3.52,3.50,3.49,3.48,3.45,3.44,3.37,3.35,3.34,3.32,3.31,3.29,3.25,3.25,3.20,3.15,3.12,3.08,3.05,3.01,2.97,2.95,2.93,2.91,2.90,2.88,2.87,2.85,2.83,2.82,2.81,2.79,2.75,2.73,2.69,2.67,2.66,2.63,2.61,2.59,2.56,2.52,2.50,2.49,2.47,2.44,2.44,2.43,2.43,2.42,2.41,2.41,2.40,2.38,2.35,2.35,2.33,2.32,2.32,2.28,2.28,2.25,2.25,2.24,2.21,2.20,2.19,2.19,2.19,2.18,2.18,2.18,2.17,2.16,2.16,2.16,2.15,2.15,2.14,2.13,2.12,2.10,2.09,2.09,2.09,2.08,2.08,2.07,1.89,1.87,1.87,1.87,1.87,1.87,1.86,1.86,1.85,1.84,1.82,1.82,1.80,1.80,1.79,1.79,1.78,1.78,1.77,1.76,1.76,1.74,1.73,1.72,1.72,1.71,1.68,1.68,1.67,1.67,1.65,1.65,1.64,1.64,1.64,1.63,1.62,1.61,1.60,1.59,1.58,1.57,1.57,1.57,1.57,1.57,1.57,1.57,1.56,1.56,1.54,1.53,1.52,1.51,1.51,1.50,1.50,1.49,1.48,1.47,1.46,1.46,1.45,1.45,1.45,1.45,1.45,1.45,1.45,1.45,1.45,1.45,1.45,1.45,1.45,1.45,1.45,1.45
8.33,8.32,8.31,8.31,8.30,8.29,8.29,8.28,8.28,8.28,8.28,8.31,8.42,8.53,8.60,8.59,8.54,8.51,8.48,8.45,8.35,8.29,8.35,8.41,8.61,8.67,8.72,8.71,8.71,8.72,8.73,8.77,8.86,8.89,8.88,8.84,8.71,8.69,8.69,8.71,8.70,8.74,8.84,8.87,9.13,9.54,9.57,9.47,9.43,9.39,9.29,9.14,9.01,8.96,8.95,9.03,9.10,9.13,9.23,9.51,9.67,9.75,9.81,9.86,9.87,9.87,9.87,9.88,9.89,9.89,9.89,9.89,9.89,9.88,9.87,9.90,9.94,9.93,9.93,9.93,9.93,9.91,9.90,9.90,9.90,9.90,9.90,9.90,9.90,9.90,9.90,9.90,9.90,9.90,9.90,9.91,9.92,9.92,9.92,9.92,9.92,9.93,9.93,9.93,9.92,9.92,9.93,9.78,9.75,9.86,9.91,9.91,9.92,9.92,9.92,9.91,9.91,9.91,9.91,9.91,9.91,9.91,9.91,9.91,9.91,9.91,9.91,9.92,9.89,9.76,9.53,9.56,9.62,9.67,9.72,9.89,9.94,9.94,9.93,9.91,9.91,9.90,9.91,9.95,9.92,9.90,9.90,9.80,9.65,9.63,9.48,9.41,9.41,9.62,9.64,9.63,9.63,9.86,9.89,9.88,9.90,9.87,9.89,9.92,9.92,9.91,9.92,9.91,9.90,9.90,9.90,9.90,9.90,9.90,9.90,9.89,9.70,9.65,9.67,9.75,9.75,9.73,9.71,9.64,9.63,9.63,9.63,9.62,9.62,9.62,9.62,9.63,9.63,9.63,9.63,9.63,9.63,9.64,9.67,9.74,9.87,9.89,9.89,9.84,9.69,9.65,9.63,9.62,9.62,9.62,9.61,9.57,9.44,9.43,9.47,9.60,9.62,9.62,9.62,9.62,9.62,9.62,9.63,9.70,9.82,9.89,9.89,9.90,9.90,9.90,9.90,9.92,9.93,9.89,9.89,9.89,9.89,9.87,9.86,9.87,9.78,9.84,9.89,9.90,9.90,9.90,9.90,9.90,9.90,9.90,9.90,9.90,9.90,9.89,9.85,9.89,9.89,9.89,9.85,9.56,9.22,6.72,6.21,5.94,5.91,5.91,5.90,5.90,5.90,5.90,5.88,5.87,5.85,5.84,5.87,5.86,5.85,5.82,5.81,5.81,5.81,5.81,5.79,5.75,5.77,5.52,5.48,5.48,5.48,5.48,5.48,5.48,5.48,5.48,5.48,5.48,5.48,5.48,5.48,5.48,5.48,5.48,5.48,5.48,5.48,5.48,5.48,5.48,5.48,5.48,5.48,5.48,5.48,5.48,5.48,5.48,5.48,5.48,5.48,5.48,5.48,5.47,5.47,5.47,5.31,5.26,5.27,5.26,5.28,5.28,5.28,5.28,5.26,5.27,5.24,5.24,5.23,5.21,5.21,5.21,4.87,4.83,4.83,4.83,4.83,4.83,4.83,4.83,4.83,4.83,4.83,4.83,4.83,4.83,4.83,4.83,4.83,4.83,4.83,4.83,4.83,4.83,4.83,4.83,4.83,4.83,4.83,4.83,4.83,4.83,4.83,4.83,4.83,4.83,4.83,4.83,4.83,4.84,4.84,4.84,4.84,4.85,4.85,4.86,4.86,4.86,4.85,4.83,4.88,4.90,4.84,4.80,4.78,4.78,4.78,4.78,4.78,4.77,4.75,4.78,4.78,4.77,4.75,4.73,4.71,4.61,4.58,4.36,4.29,4.25,4.21,4.21,4.21,4.21,4.22,4.23,4.20,4.12,4.09,4.02,3.96,3.93,3.91,3.89,3.87,3.87,3.83,3.80,3.76,3.59,3.53,3.51,3.50,3.48,3.47,3.44,3.43,3.37,3.34,3.33,3.31,3.30,3.29,3.25,3.25,3.21,3.18,3.15,3.11,3.09,3.03,2.97,2.95,2.93,2.92,2.91,2.89,2.88,2.86,2.83,2.82,2.82,2.78,2.74,2.72,2.70,2.68,2.65,2.63,2.60,2.58,2.56,2.53,2.51,2.49,2.46,2.44,2.43,2.43,2.43,2.41,2.41,2.39,2.38,2.37,2.36,2.35,2.34,2.32,2.32,2.27,2.27,2.25,2.24,2.21,2.20,2.20,2.19,2.19,2.19,2.18,2.18,2.18,2.18,2.17,2.16,2.16,2.14,2.13,2.12,2.12,2.10,2.09,2.09,2.09,2.08,2.08,2.08,2.03,1.87,1.87,1.87,1.87,1.87,1.87,1.86,1.86,1.86,1.85,1.82,1.81,1.80,1.79,1.79,1.79,1.78,1.78,1.77,1.76,1.76,1.75,1.74,1.73,1.72,1.70,1.69,1.68,1.67,1.67,1.65,1.65,1.64,1.64,1.64,1.63,1.62,1.61,1.60,1.59,1.58,1.57,1.57,1.57,1.57,1.57,1.57,1.57,1.56,1.55,1.54,1.53,1.52,1.52,1.51,1.50,1.50,1.49,1.48,1.47,1.47,1.46,1.45,1.45,1.44,1.45,1.45,1.45,1.45,1.45,1.45,1.45,1.45,1.45,1.45,1.45,1.45,1.45
8.32,8.30,8.30,8.28,8.27,8.27,8.27,8.27,8.26,8.27,8.27,8.31,8.44,8.57,8.65,8.67,8.66,8.64,8.59,8.49,8.36,8.24,8.25,8.39,8.60,8.72,8.85,8.83,8.83,8.83,8.83,8.85,8.89,8.89,8.89,8.87,8.72,8.69,8.72,8.79,8.73,8.73,8.87,8.95,9.14,9.51,9.43,9.43,9.40,9.38,9.27,9.19,9.01,9.02,9.07,9.08,9.12,9.15,9.38,9.62,9.77,9.85,9.88,9.88,9.88,9.82,9.79,9.81,9.84,9.89,9.89,9.89,9.89,9.89,9.89,9.90,9.94,9.93,9.93,9.93,9.93,9.91,9.90,9.90,9.90,9.90,9.90,9.90,9.90,9.90,9.90,9.90,9.90,9.90,9.90,9.91,9.92,9.92,9.92,9.92,9.92,9.93,9.93,9.93,9.93,9.93,9.94,9.84,9.83,9.90,9.91,9.91,9.92,9.92,9.92,9.92,9.91,9.91,9.91,9.91,9.91,9.91,9.91,9.91,9.91,9.91,9.91,9.90,9.89,9.81,9.61,9.63,9.64,9.69,9.70,9.89,9.95,9.94,9.92,9.95,9.94,9.90,9.91,9.93,9.95,9.94,9.93,9.76,9.73,9.74,9.72,9.48,9.50,9.67,9.72,9.63,9.63,9.84,9.87,9.84,9.81,9.83,9.85,9.88,9.88,9.93,9.92,9.89,9.92,9.90,9.90,9.90,9.90,9.89,9.89,9.87,9.69,9.64,9.73,9.81,9.78,9.72,9.69,9.65,9.64,9.63,9.62,9.62,9.62,9.62,9.62,9.62,9.62,9.62,9.62,9.60,9.53,9.62,9.66,9.77,9.84,9.89,9.89,9.88,9.84,9.71,9.77,9.67,9.63,9.62,9.62,9.62,9.60,9.59,9.60,9.62,9.62,9.62,9.62,9.62,9.62,9.62,9.64,9.70,9.82,9.90,9.90,9.90,9.92,9.90,9.90,9.93,9.92,9.90,9.89,9.87,9.88,9.77,9.82,9.77,9.71,9.81,9.89,9.90,9.90,9.90,9.90,9.90,9.90,9.90,9.90,9.90,9.90,9.90,9.88,9.88,9.87,9.86,9.84,9.68,9.68,7.10,6.38,5.96,5.91,5.91,5.90,5.90,5.90,5.90,5.90,5.90,5.87,5.85,5.88,5.86,5.86,5.83,5.81,5.81,5.81,5.81,5.79,5.75,5.79,5.53,5.48,5.48,5.48,5.48,5.48,5.48,5.48,5.48,5.48,5.48,5.48,5.48,5.48,5.48,5.48,5.48,5.48,5.48,5.48,5.48,5.48,5.48,5.48,5.48,5.48,5.48,5.48,5.48,5.48,5.48,5.48,5.48,5.48,5.48,5.48,5.47,5.47,5.47,5.30,5.27,5.27,5.27,5.28,5.28,5.28,5.28,5.26,5.27,5.23,5.22,5.21,5.21,5.21,5.21,4.87,4.83,4.83,4.83,4.83,4.83,4.83,4.83,4.83,4.83,4.83,4.83,4.83,4.83,4.83,4.83,4.83,4.83,4.83,4.83,4.83,4.83,4.83,4.83,4.83,4.83,4.83,4.83,4.83,4.83,4.83,4.83,4.83,4.83,4.83,4.83,4.84,4.84,4.84,4.84,4.84,4.85,4.85,4.86,4.86,4.86,4.81,4.81,4.87,4.89,4.84,4.82,4.80,4.79,4.78,4.78,4.78,4.77,4.77,4.78,4.78,4.78,4.77,4.75,4.71,4.64,4.55,4.36,4.29,4.25,4.22,4.21,4.21,4.21,4.21,4.22,4.20,4.11,4.08,4.02,3.93,3.93,3.91,3.88,3.88,3.86,3.84,3.81,3.77,3.70,3.53,3.52,3.51,3.47,3.46,3.43,3.42,3.36,3.33,3.32,3.32,3.29,3.27,3.25,3.24,3.20,3.20,3.17,3.12,3.11,3.05,2.97,2.95,2.93,2.92,2.91,2.89,2.88,2.85,2.83,2.83,2.82,2.80,2.75,2.72,2.69,2.67,2.65,2.63,2.60,2.58,2.57,2.53,2.52,2.49,2.46,2.44,2.43,2.43,2.42,2.41,2.41,2.39,2.38,2.37,2.36,2.35,2.35,2.33,2.32,2.27,2.26,2.23,2.21,2.21,2.20,2.20,2.20,2.20,2.19,2.19,2.18,2.18,2.17,2.17,2.16,2.14,2.13,2.13,2.12,2.12,2.11,2.10,2.09,2.08,2.07,2.06,2.06,2.00,1.87,1.87,1.87,1.87,1.87,1.87,1.87,1.87,1.86,1.84,1.81,1.80,1.80,1.79,1.79,1.79,1.79,1.78,1.77,1.76,1.76,1.75,1.74,1.74,1.73,1.71,1.68,1.68,1.67,1.67,1.66,1.66,1.65,1.65,1.64,1.63,1.62,1.61,1.60,1.59,1.58,1.57,1.57,1.57,1.57,1.57,1.57,1.57,1.56,1.55,1.53,1.53,1.52,1.52,1.51,1.50,1.50,1.49,1.48,1.47,1.47,1.46,1.45,1.45,1.44,1.44,1.45,1.45,1.45,1.45,1.45,1.45,1.45,1.45,1.45,1.45,1.45,1.45
8.30,8.30,8.29,8.28,8.27,8.27,8.27,8.26,8.26,8.26,8.26,8.31,8.41,8.49,8.62,8.76,8.72,8.67,8.63,8.51,8.39,8.28,8.27,8.32,8.54,8.79,8.86,8.86,8.87,8.88,8.88,8.88,8.89,8.89,8.89,8.89,8.83,8.70,8.71,8.81,8.91,8.85,8.91,8.95,9.33,9.38,9.35,9.34,9.33,9.33,9.29,9.22,9.17,9.15,9.19,9.24,9.19,9.30,9.42,9.60,9.67,9.74,9.87,9.88,9.89,9.82,9.68,9.72,9.79,9.87,9.88,9.89,9.89,9.89,9.89,9.90,9.94,9.93,9.93,9.93,9.93,9.91,9.91,9.90,9.90,9.90,9.90,9.90,9.90,9.90,9.90,9.90,9.90,9.90,9.90,9.91,9.92,9.92,9.92,9.92,9.92,9.92,9.93,9.93,9.93,9.93,9.96,9.90,9.89,9.91,9.91,9.91,9.92,9.92,9.92,9.92,9.91,9.91,9.91,9.91,9.91,9.91,9.91,9.91,9.91,9.91,9.92,9.91,9.89,9.82,9.64,9.66,9.67,9.73,9.71,9.90,9.95,9.93,9.92,9.93,9.92,9.90,9.91,9.92,9.92,9.91,9.85,9.87,9.92,9.88,9.85,9.60,9.68,9.83,9.86,9.65,9.68,9.81,9.85,9.73,9.67,9.72,9.77,9.82,9.83,9.86,9.88,9.87,9.86,9.87,9.87,9.88,9.89,9.89,9.89,9.77,9.64,9.64,9.70,9.78,9.85,9.85,9.77,9.69,9.68,9.67,9.63,9.62,9.62,9.62,9.62,9.62,9.62,9.62,9.62,9.57,9.61,9.67,9.88,9.89,9.89,9.87,9.88,9.88,9.86,9.70,9.82,9.68,9.63,9.63,9.62,9.62,9.62,9.62,9.59,9.47,9.47,9.59,9.62,9.62,9.62,9.62,9.63,9.70,9.83,9.90,9.90,9.90,9.92,9.92,9.90,9.92,9.93,9.90,9.89,9.84,9.77,9.72,9.80,9.75,9.71,9.82,9.88,9.89,9.90,9.90,9.90,9.90,9.90,9.90,9.90,9.90,9.90,9.90,9.89,9.82,9.76,9.74,9.73,9.68,9.68,7.41,6.63,6.09,5.92,5.91,5.90,5.90,5.90,5.90,5.90,5.90,5.88,5.86,5.89,5.88,5.86,5.83,5.81,5.81,5.81,5.81,5.80,5.79,5.80,5.56,5.48,5.48,5.48,5.48,5.48,5.48,5.48,5.48,5.48,5.48,5.48,5.48,5.48,5.48,5.48,5.48,5.48,5.48,5.48,5.48,5.48,5.48,5.48,5.48,5.48,5.48,5.48,5.48,5.48,5.48,5.48,5.48,5.47,5.47,5.47,5.47,5.47,5.47,5.31,5.29,5.28,5.28,5.28,5.29,5.28,5.28,5.28,5.27,5.24,5.22,5.21,5.21,5.21,5.21,4.87,4.83,4.83,4.83,4.83,4.83,4.83,4.83,4.83,4.83,4.83,4.83,4.83,4.83,4.83,4.83,4.83,4.83,4.83,4.83,4.83,4.83,4.83,4.83,4.83,4.83,4.83,4.83,4.83,4.83,4.83,4.83,4.83,4.83,4.84,4.84,4.84,4.84,4.84,4.84,4.84,4.85,4.85,4.86,4.86,4.85,4.81,4.82,4.86,4.86,4.85,4.84,4.83,4.81,4.79,4.79,4.78,4.78,4.78,4.78,4.78,4.78,4.78,4.77,4.72,4.64,4.57,4.38,4.29,4.25,4.24,4.21,4.21,4.21,4.21,4.21,4.18,4.10,4.07,4.01,3.93,3.92,3.91,3.90,3.88,3.87,3.85,3.81,3.76,3.70,3.59,3.56,3.51,3.47,3.46,3.43,3.42,3.35,3.33,3.31,3.31,3.28,3.26,3.25,3.24,3.20,3.20,3.18,3.13,3.12,3.06,2.98,2.95,2.93,2.92,2.91,2.89,2.88,2.87,2.85,2.84,2.83,2.81,2.77,2.72,2.70,2.67,2.65,2.64,2.61,2.58,2.55,2.53,2.51,2.48,2.46,2.45,2.44,2.43,2.42,2.42,2.41,2.39,2.38,2.37,2.35,2.35,2.35,2.35,2.33,2.26,2.26,2.22,2.21,2.21,2.20,2.20,2.20,2.19,2.19,2.19,2.18,2.17,2.16,2.15,2.15,2.13,2.13,2.13,2.10,2.07,2.07,2.06,2.06,2.06,2.06,2.06,2.05,2.01,1.88,1.88,1.87,1.87,1.87,1.87,1.87,1.86,1.85,1.84,1.83,1.80,1.80,1.80,1.79,1.79,1.78,1.78,1.77,1.76,1.76,1.75,1.74,1.73,1.72,1.71,1.68,1.68,1.67,1.67,1.66,1.66,1.65,1.65,1.65,1.63,1.63,1.61,1.60,1.59,1.58,1.57,1.57,1.57,1.57,1.56,1.56,1.56,1.55,1.55,1.54,1.53,1.52,1.52,1.51,1.51,1.50,1.49,1.48,1.47,1.47,1.46,1.45,1.45,1.44,1.45,1.45,1.45,1.45,1.45,1.45,1.45,1.45,1.45,1.45,1.45,1.45,1.45
8.30,8.29,8.28,8.28,8.28,8.27,8.27,8.26,8.26,8.26,8.25,8.26,8.26,8.35,8.59,8.75,8.71,8.66,8.62,8.50,8.40,8.27,8.23,8.29,8.46,8.64,8.83,8.83,8.79,8.89,8.89,8.89,8.89,8.89,8.89,8.89,8.86,8.76,8.73,8.84,8.97,8.92,8.91,8.94,9.21,9.30,9.28,9.26,9.25,9.26,9.31,9.32,9.33,9.34,9.31,9.33,9.35,9.37,9.42,9.52,9.65,9.74,9.82,9.88,9.89,9.79,9.64,9.70,9.79,9.86,9.87,9.88,9.89,9.89,9.90,9.91,9.94,9.93,9.93,9.93,9.93,9.91,9.91,9.91,9.91,9.90,9.91,9.90,9.90,9.90,9.90,9.90,9.90,9.90,9.91,9.91,9.92,9.92,9.92,9.92,9.92,9.92,9.93,9.93,9.93,9.93,9.94,9.93,9.91,9.94,9.92,9.91,9.92,9.92,9.92,9.92,9.91,9.91,9.91,9.91,9.91,9.91,9.91,9.91,9.91,9.91,9.91,9.93,9.90,9.84,9.72,9.72,9.71,9.70,9.71,9.90,9.93,9.92,9.90,9.91,9.90,9.90,9.89,9.90,9.91,9.92,9.94,9.94,9.92,9.91,9.91,9.77,9.84,9.88,9.89,9.75,9.74,9.73,9.83,9.68,9.64,9.66,9.65,9.66,9.64,9.69,9.78,9.86,9.86,9.87,9.87,9.88,9.87,9.84,9.77,9.68,9.63,9.64,9.76,9.85,9.86,9.85,9.86,9.84,9.84,9.81,9.76,9.78,9.75,9.76,9.66,9.64,9.63,9.63,9.63,9.61,9.58,9.72,9.86,9.89,9.90,9.90,9.88,9.88,9.85,9.71,9.78,9.67,9.63,9.63,9.62,9.62,9.62,9.62,9.61,9.58,9.58,9.60,9.62,9.62,9.62,9.63,9.64,9.71,9.83,9.90,9.90,9.91,9.93,9.91,9.90,9.93,9.91,9.90,9.89,9.73,9.69,9.80,9.84,9.84,9.83,9.86,9.88,9.89,9.90,9.90,9.90,9.90,9.90,9.90,9.90,9.90,9.91,9.95,9.89,9.84,9.76,9.69,9.68,9.67,9.74,8.36,7.96,6.61,5.93,5.94,5.91,5.90,5.90,5.90,5.90,5.90,5.89,5.88,5.90,5.89,5.87,5.82,5.81,5.81,5.81,5.81,5.81,5.82,5.83,5.61,5.48,5.48,5.48,5.48,5.48,5.48,5.48,5.48,5.48,5.48,5.48,5.48,5.48,5.48,5.48,5.48,5.48,5.48,5.48,5.48,5.48,5.48,5.48,5.48,5.48,5.48,5.48,5.48,5.48,5.48,5.48,5.48,5.47,5.47,5.47,5.47,5.47,5.47,5.36,5.33,5.32,5.29,5.29,5.29,5.28,5.28,5.28,5.28,5.26,5.22,5.21,5.21,5.21,5.23,4.88,4.83,4.83,4.83,4.82,4.83,4.83,4.83,4.83,4.83,4.83,4.83,4.83,4.83,4.83,4.83,4.83,4.83,4.83,4.83,4.83,4.83,4.83,4.83,4.83,4.83,4.83,4.83,4.83,4.83,4.83,4.83,4.84,4.84,4.84,4.84,4.84,4.84,4.84,4.84,4.84,4.85,4.85,4.86,4.86,4.85,4.84,4.84,4.85,4.86,4.86,4.86,4.84,4.83,4.82,4.81,4.78,4.78,4.78,4.78,4.78,4.78,4.78,4.77,4.73,4.68,4.65,4.44,4.29,4.25,4.24,4.21,4.21,4.21,4.21,4.23,4.17,4.09,4.07,4.02,3.95,3.93,3.91,3.86,3.85,3.87,3.84,3.79,3.73,3.65,3.61,3.59,3.53,3.49,3.47,3.43,3.41,3.36,3.34,3.32,3.32,3.27,3.27,3.26,3.25,3.23,3.22,3.18,3.12,3.12,3.06,2.98,2.94,2.92,2.92,2.90,2.89,2.88,2.87,2.85,2.85,2.85,2.81,2.77,2.71,2.70,2.68,2.66,2.63,2.61,2.57,2.55,2.53,2.50,2.48,2.46,2.45,2.44,2.43,2.42,2.42,2.41,2.40,2.38,2.37,2.36,2.35,2.35,2.33,2.33,2.26,2.26,2.23,2.22,2.22,2.21,2.21,2.20,2.19,2.18,2.17,2.17,2.16,2.16,2.15,2.15,2.14,2.13,2.10,2.07,2.07,2.06,2.06,2.06,2.05,2.05,2.05,2.04,2.03,1.88,1.88,1.88,1.87,1.87,1.87,1.86,1.86,1.85,1.84,1.83,1.81,1.80,1.80,1.79,1.79,1.78,1.78,1.77,1.76,1.76,1.74,1.73,1.72,1.71,1.70,1.68,1.67,1.67,1.67,1.66,1.66,1.65,1.65,1.64,1.64,1.63,1.62,1.60,1.60,1.59,1.58,1.57,1.57,1.56,1.56,1.56,1.55,1.55,1.55,1.54,1.54,1.54,1.53,1.52,1.52,1.51,1.49,1.48,1.48,1.47,1.46,1.46,1.45,1.44,1.44,1.45,1.45,1.45,1.45,1.45,1.45,1.45,1.45,1.45,1.45,1.45,1.45
8.30,8.29,8.28,8.28,8.28,8.27,8.26,8.26,8.26,8.25,8.24,8.17,8.26,8.28,8.51,8.61,8.63,8.64,8.57,8.49,8.39,8.31,8.29,8.51,8.66,8.68,8.82,8.82,8.77,8.89,8.89,8.89,8.89,8.89,8.89,8.89,8.89,8.87,8.83,8.90,8.92,8.91,8.92,8.93,9.07,9.12,9.11,9.14,9.13,9.14,9.30,9.34,9.36,9.36,9.37,9.36,9.37,9.41,9.58,9.70,9.72,9.75,9.81,9.86,9.82,9.71,9.63,9.67,9.78,9.87,9.87,9.88,9.89,9.89,9.90,9.92,9.94,9.94,9.93,9.93,9.92,9.91,9.91,9.91,9.91,9.91,9.91,9.91,9.91,9.90,9.90,9.90,9.91,9.90,9.91,9.91,9.92,9.92,9.92,9.92,9.92,9.92,9.93,9.93,9.93,9.93,9.93,9.93,9.96,9.93,9.92,9.92,9.92,9.92,9.92,9.92,9.91,9.91,9.91,9.91,9.91,9.91,9.91,9.91,9.91,9.91,9.91,9.92,9.93,9.88,9.82,9.77,9.78,9.74,9.71,9.92,9.92,9.89,9.89,9.90,9.90,9.88,9.83,9.90,9.91,9.91,9.91,9.91,9.92,9.92,9.91,9.88,9.88,9.92,9.90,9.89,9.72,9.80,9.84,9.68,9.65,9.64,9.64,9.64,9.65,9.70,9.72,9.84,9.90,9.88,9.88,9.86,9.84,9.82,9.69,9.65,9.64,9.71,9.84,9.86,9.89,9.87,9.88,9.89,9.87,9.86,9.85,9.79,9.74,9.76,9.67,9.68,9.63,9.63,9.63,9.67,9.78,9.81,9.83,9.92,9.90,9.89,9.85,9.77,9.82,9.72,9.78,9.68,9.74,9.62,9.51,9.60,9.60,9.50,9.60,9.62,9.63,9.66,9.79,9.82,9.83,9.83,9.83,9.84,9.82,9.90,9.90,9.92,9.93,9.93,9.91,9.91,9.91,9.90,9.90,9.69,9.66,9.83,9.87,9.88,9.88,9.88,9.89,9.89,9.90,9.90,9.90,9.90,9.90,9.90,9.90,9.90,9.93,9.93,9.90,9.87,9.84,9.76,9.74,9.75,9.70,7.98,7.88,7.31,6.11,5.95,5.91,5.90,5.89,5.88,5.90,5.90,5.90,5.90,5.90,5.89,5.86,5.83,5.81,5.81,5.81,5.81,5.82,5.82,5.84,5.73,5.48,5.48,5.48,5.48,5.48,5.48,5.48,5.48,5.48,5.48,5.48,5.48,5.48,5.48,5.48,5.48,5.48,5.48,5.48,5.48,5.48,5.48,5.48,5.48,5.48,5.48,5.48,5.48,5.48,5.48,5.48,5.48,5.47,5.47,5.47,5.47,5.47,5.47,5.39,5.35,5.35,5.32,5.32,5.29,5.28,5.28,5.28,5.27,5.26,5.22,5.21,5.21,5.21,5.21,4.87,4.83,4.83,4.83,4.82,4.83,4.83,4.83,4.83,4.83,4.83,4.83,4.83,4.83,4.83,4.83,4.83,4.83,4.83,4.83,4.83,4.83,4.83,4.83,4.83,4.83,4.83,4.83,4.83,4.83,4.83,4.84,4.84,4.84,4.84,4.84,4.84,4.84,4.84,4.84,4.84,4.85,4.85,4.86,4.86,4.85,4.85,4.85,4.86,4.88,4.88,4.87,4.85,4.84,4.84,4.83,4.79,4.78,4.78,4.78,4.79,4.80,4.78,4.78,4.75,4.71,4.67,4.42,4.29,4.25,4.25,4.24,4.22,4.23,4.23,4.22,4.17,4.09,4.07,4.01,3.95,3.93,3.90,3.85,3.85,3.86,3.81,3.75,3.68,3.63,3.60,3.59,3.56,3.50,3.49,3.45,3.41,3.36,3.34,3.33,3.31,3.27,3.27,3.27,3.25,3.24,3.22,3.17,3.13,3.13,3.05,2.99,2.94,2.92,2.92,2.90,2.89,2.88,2.87,2.85,2.86,2.85,2.82,2.77,2.72,2.70,2.67,2.65,2.64,2.61,2.58,2.55,2.53,2.51,2.47,2.46,2.45,2.44,2.43,2.43,2.41,2.41,2.39,2.39,2.37,2.36,2.36,2.34,2.32,2.32,2.26,2.26,2.24,2.23,2.22,2.21,2.21,2.19,2.19,2.18,2.18,2.17,2.16,2.16,2.14,2.11,2.09,2.09,2.08,2.07,2.07,2.06,2.06,2.06,2.05,2.04,2.04,2.04,2.04,1.89,1.89,1.88,1.87,1.87,1.86,1.86,1.85,1.84,1.83,1.82,1.81,1.80,1.80,1.79,1.79,1.78,1.78,1.77,1.76,1.75,1.75,1.73,1.72,1.71,1.69,1.68,1.67,1.67,1.67,1.66,1.65,1.65,1.65,1.64,1.64,1.63,1.63,1.61,1.60,1.59,1.59,1.58,1.57,1.57,1.56,1.55,1.55,1.55,1.55,1.54,1.54,1.53,1.53,1.52,1.51,1.50,1.49,1.49,1.48,1.47,1.46,1.46,1.45,1.44,1.44,1.44,1.45,1.45,1.45,1.45,1.45,1.45,1.45,1.45,1.45,1.45,1.45
8.30,8.29,8.29,8.28,8.28,8.27,8.27,8.26,8.26,8.25,8.25,8.24,8.25,8.26,8.32,8.38,8.40,8.45,8.53,8.47,8.45,8.33,8.41,8.64,8.67,8.75,8.81,8.76,8.78,8.89,8.89,8.89,8.89,8.89,8.89,8.89,8.89,8.89,8.91,8.98,8.98,8.92,8.97,8.94,9.02,9.06,9.07,9.12,9.13,9.13,9.28,9.35,9.36,9.37,9.38,9.39,9.38,9.55,9.70,9.76,9.80,9.80,9.85,9.86,9.81,9.66,9.65,9.66,9.73,9.84,9.85,9.87,9.88,9.89,9.89,9.93,9.95,9.94,9.93,9.93,9.92,9.91,9.91,9.91,9.91,9.91,9.91,9.91,9.91,9.91,9.91,9.91,9.91,9.91,9.91,9.91,9.92,9.92,9.92,9.92,9.92,9.93,9.93,9.93,9.93,9.93,9.93,9.93,9.94,9.93,9.92,9.92,9.92,9.92,9.92,9.92,9.91,9.91,9.92,9.91,9.91,9.91,9.91,9.91,9.91,9.91,9.91,9.91,9.93,9.93,9.85,9.74,9.74,9.72,9.75,9.86,9.88,9.88,9.88,9.89,9.90,9.86,9.74,9.90,9.94,9.95,9.93,9.93,9.92,9.92,9.91,9.94,9.89,9.89,9.90,9.92,9.78,9.84,9.87,9.69,9.65,9.65,9.67,9.71,9.81,9.76,9.83,9.90,9.89,9.88,9.86,9.84,9.82,9.78,9.80,9.66,9.64,9.65,9.78,9.88,9.90,9.90,9.89,9.89,9.89,9.88,9.86,9.79,9.69,9.72,9.76,9.70,9.65,9.63,9.65,9.71,9.84,9.87,9.89,9.90,9.90,9.89,9.89,9.87,9.83,9.72,9.78,9.67,9.64,9.60,9.49,9.60,9.62,9.63,9.66,9.68,9.68,9.69,9.81,9.75,9.85,9.88,9.89,9.89,9.86,9.91,9.91,9.92,9.93,9.94,9.93,9.94,9.91,9.90,9.90,9.71,9.66,9.84,9.88,9.89,9.89,9.89,9.89,9.89,9.90,9.90,9.90,9.90,9.90,9.90,9.90,9.90,9.90,9.90,9.90,9.88,9.87,9.85,9.86,9.70,9.70,7.90,7.74,7.57,6.02,5.93,5.91,5.90,5.89,5.89,5.90,5.90,5.90,5.90,5.90,5.90,5.88,5.84,5.81,5.81,5.82,5.83,5.85,5.84,5.88,5.79,5.48,5.48,5.48,5.48,5.48,5.48,5.48,5.48,5.48,5.48,5.48,5.48,5.48,5.48,5.48,5.48,5.48,5.48,5.48,5.48,5.48,5.48,5.48,5.48,5.48,5.48,5.48,5.48,5.48,5.48,5.48,5.48,5.47,5.47,5.47,5.47,5.47,5.47,5.43,5.36,5.36,5.35,5.33,5.30,5.28,5.28,5.28,5.27,5.25,5.23,5.21,5.21,5.21,5.21,4.87,4.82,4.82,4.82,4.82,4.82,4.83,4.83,4.83,4.83,4.83,4.83,4.83,4.83,4.83,4.83,4.83,4.83,4.83,4.83,4.83,4.83,4.83,4.83,4.83,4.83,4.83,4.83,4.83,4.84,4.84,4.84,4.84,4.84,4.84,4.84,4.84,4.84,4.84,4.84,4.84,4.85,4.85,4.86,4.86,4.86,4.86,4.86,4.88,4.88,4.89,4.86,4.85,4.85,4.85,4.84,4.79,4.78,4.78,4.78,4.78,4.79,4.78,4.78,4.77,4.73,4.67,4.40,4.30,4.25,4.23,4.22,4.23,4.22,4.22,4.21,4.18,4.10,4.03,3.99,3.94,3.94,3.90,3.87,3.87,3.88,3.81,3.77,3.71,3.64,3.60,3.60,3.57,3.52,3.51,3.48,3.43,3.35,3.33,3.33,3.31,3.26,3.26,3.26,3.26,3.24,3.21,3.13,3.13,3.12,3.05,2.99,2.95,2.92,2.92,2.90,2.89,2.88,2.86,2.85,2.85,2.85,2.80,2.75,2.71,2.68,2.66,2.65,2.64,2.62,2.59,2.55,2.52,2.51,2.48,2.46,2.45,2.45,2.44,2.42,2.42,2.40,2.40,2.39,2.37,2.36,2.33,2.32,2.32,2.31,2.29,2.26,2.24,2.23,2.22,2.21,2.20,2.19,2.19,2.18,2.16,2.14,2.13,2.13,2.11,2.08,2.08,2.08,2.07,2.07,2.06,2.06,2.06,2.06,2.05,2.04,2.04,2.04,2.03,1.89,1.89,1.89,1.88,1.87,1.86,1.86,1.86,1.85,1.84,1.82,1.82,1.81,1.80,1.79,1.79,1.78,1.78,1.77,1.76,1.75,1.75,1.73,1.72,1.71,1.69,1.68,1.67,1.67,1.67,1.66,1.66,1.65,1.65,1.64,1.64,1.63,1.63,1.61,1.60,1.59,1.59,1.58,1.57,1.57,1.55,1.55,1.55,1.54,1.54,1.54,1.54,1.53,1.52,1.51,1.50,1.49,1.49,1.49,1.48,1.48,1.47,1.46,1.45,1.44,1.44,1.45,1.45,1.45,1.45,1.45,1.45,1.45,1.45,1.45,1.45,1.45,1.45
8.30,8.29,8.29,8.28,8.28,8.27,8.27,8.26,8.25,8.24,8.22,8.20,8.18,8.15,8.13,8.14,8.18,8.27,8.47,8.47,8.43,8.35,8.44,8.72,8.75,8.76,8.84,8.84,8.83,8.88,8.89,8.89,8.89,8.89,8.89,8.89,8.89,8.90,8.90,8.96,9.06,8.93,8.98,8.97,8.99,9.02,9.08,9.13,9.13,9.15,9.30,9.35,9.38,9.44,9.50,9.52,9.53,9.62,9.87,9.88,9.88,9.86,9.87,9.85,9.80,9.64,9.59,9.63,9.71,9.81,9.83,9.86,9.87,9.89,9.89,9.93,9.93,9.94,9.94,9.93,9.92,9.91,9.91,9.91,9.91,9.91,9.91,9.91,9.91,9.91,9.91,9.91,9.91,9.91,9.91,9.91,9.92,9.92,9.92,9.92,9.92,9.93,9.93,9.93,9.93,9.93,9.93,9.93,9.93,9.92,9.92,9.92,9.92,9.92,9.92,9.92,9.91,9.91,9.92,9.92,9.91,9.91,9.91,9.91,9.91,9.91,9.91,9.91,9.91,9.91,9.83,9.80,9.78,9.75,9.76,9.85,9.87,9.88,9.87,9.88,9.92,9.88,9.87,9.91,9.93,9.93,9.93,9.93,9.93,9.92,9.92,9.93,9.92,9.89,9.90,9.95,9.92,9.92,9.91,9.74,9.69,9.68,9.78,9.83,9.85,9.86,9.86,9.86,9.87,9.87,9.87,9.88,9.92,9.85,9.74,9.66,9.64,9.66,9.75,9.85,9.88,9.89,9.89,9.89,9.89,9.89,9.89,9.87,9.80,9.78,9.87,9.87,9.82,9.72,9.77,9.88,9.89,9.89,9.90,9.90,9.90,9.89,9.89,9.88,9.82,9.69,9.66,9.65,9.62,9.60,9.59,9.60,9.62,9.64,9.77,9.78,9.80,9.81,9.83,9.74,9.84,9.88,9.89,9.89,9.90,9.92,9.92,9.93,9.93,9.94,9.94,9.95,9.91,9.90,9.90,9.81,9.72,9.85,9.89,9.89,9.89,9.89,9.90,9.90,9.90,9.90,9.90,9.90,9.90,9.90,9.90,9.90,9.90,9.90,9.90,9.89,9.89,9.89,9.85,9.68,9.68,7.90,7.85,7.57,5.96,5.93,5.91,5.90,5.90,5.90,5.90,5.90,5.90,5.90,5.90,5.90,5.90,5.88,5.84,5.82,5.83,5.87,5.88,5.88,5.88,5.67,5.48,5.48,5.48,5.48,5.48,5.48,5.48,5.48,5.48,5.48,5.48,5.48,5.48,5.48,5.48,5.48,5.48,5.48,5.48,5.48,5.48,5.48,5.48,5.48,5.48,5.48,5.48,5.48,5.48,5.48,5.48,5.48,5.47,5.47,5.47,5.47,5.47,5.47,5.44,5.36,5.36,5.36,5.33,5.30,5.29,5.29,5.28,5.27,5.23,5.22,5.22,5.23,5.22,5.21,4.87,4.82,4.82,4.82,4.82,4.82,4.82,4.83,4.83,4.83,4.83,4.83,4.83,4.83,4.83,4.83,4.83,4.83,4.83,4.83,4.83,4.83,4.83,4.83,4.83,4.83,4.83,4.83,4.84,4.84,4.84,4.84,4.84,4.84,4.84,4.84,4.84,4.84,4.84,4.84,4.84,4.85,4.85,4.86,4.86,4.86,4.86,4.89,4.88,4.86,4.87,4.86,4.85,4.85,4.85,4.82,4.79,4.78,4.78,4.78,4.78,4.78,4.78,4.78,4.77,4.73,4.63,4.43,4.33,4.28,4.24,4.22,4.25,4.24,4.22,4.21,4.19,4.10,4.09,4.01,3.97,3.94,3.91,3.87,3.87,3.89,3.84,3.76,3.70,3.65,3.60,3.60,3.57,3.53,3.50,3.46,3.43,3.36,3.33,3.31,3.31,3.25,3.26,3.26,3.26,3.24,3.21,3.12,3.12,3.12,3.04,3.00,2.96,2.92,2.92,2.91,2.90,2.88,2.85,2.84,2.84,2.84,2.80,2.74,2.72,2.69,2.66,2.65,2.63,2.62,2.59,2.55,2.54,2.53,2.50,2.46,2.47,2.46,2.44,2.42,2.42,2.41,2.40,2.39,2.37,2.36,2.34,2.33,2.32,2.30,2.27,2.26,2.24,2.23,2.22,2.21,2.20,2.19,2.19,2.17,2.14,2.11,2.10,2.10,2.09,2.08,2.08,2.08,2.07,2.06,2.06,2.06,2.06,2.05,2.05,2.04,2.04,2.04,1.98,1.89,1.89,1.89,1.89,1.87,1.87,1.87,1.86,1.85,1.84,1.82,1.82,1.81,1.80,1.80,1.79,1.78,1.78,1.77,1.76,1.75,1.75,1.73,1.72,1.70,1.69,1.68,1.67,1.67,1.66,1.66,1.66,1.66,1.65,1.64,1.63,1.63,1.63,1.61,1.61,1.60,1.59,1.57,1.57,1.57,1.55,1.55,1.55,1.54,1.54,1.54,1.54,1.53,1.52,1.51,1.50,1.49,1.49,1.49,1.49,1.48,1.47,1.47,1.46,1.45,1.45,1.45,1.45,1.45,1.45,1.45,1.45,1.45,1.45,1.45,1.45,1.45,1.45
8.30,8.29,8.29,8.28,8.28,8.27,8.27,8.26,8.25,8.24,8.22,8.20,8.18,8.17,8.20,8.19,8.14,8.24,8.32,8.41,8.42,8.43,8.51,8.76,8.82,8.84,8.86,8.87,8.88,8.88,8.89,8.89,8.89,8.89,8.89,8.89,8.89,8.90,8.90,9.04,9.10,8.98,9.00,9.02,8.98,9.02,9.08,9.12,9.13,9.15,9.26,9.35,9.38,9.44,9.53,9.58,9.59,9.78,9.86,9.87,9.83,9.80,9.83,9.87,9.78,9.62,9.54,9.64,9.71,9.79,9.70,9.82,9.84,9.88,9.90,9.93,9.93,9.93,9.93,9.92,9.92,9.91,9.91,9.91,9.91,9.91,9.91,9.91,9.91,9.91,9.91,9.91,9.91,9.91,9.91,9.91,9.91,9.92,9.92,9.92,9.92,9.92,9.92,9.92,9.92,9.92,9.92,9.92,9.93,9.92,9.92,9.92,9.92,9.92,9.92,9.92,9.91,9.91,9.92,9.92,9.91,9.91,9.91,9.91,9.91,9.91,9.91,9.91,9.91,9.90,9.85,9.81,9.81,9.78,9.78,9.85,9.84,9.87,9.87,9.87,9.88,9.88,9.89,9.90,9.90,9.91,9.92,9.92,9.92,9.92,9.93,9.93,9.93,9.92,9.93,9.94,9.94,9.92,9.91,9.90,9.89,9.89,9.90,9.90,9.89,9.88,9.84,9.73,9.74,9.76,9.80,9.70,9.68,9.68,9.73,9.66,9.64,9.66,9.73,9.80,9.86,9.87,9.89,9.89,9.90,9.89,9.89,9.87,9.81,9.77,9.87,9.87,9.82,9.84,9.86,9.88,9.89,9.89,9.90,9.90,9.89,9.89,9.88,9.87,9.82,9.69,9.67,9.66,9.64,9.63,9.63,9.65,9.69,9.84,9.88,9.89,9.89,9.89,9.89,9.87,9.88,9.89,9.89,9.90,9.95,9.94,9.92,9.92,9.94,9.92,9.94,9.95,9.91,9.90,9.90,9.87,9.83,9.88,9.89,9.90,9.90,9.90,9.90,9.90,9.90,9.90,9.90,9.90,9.90,9.94,9.90,9.90,9.90,9.90,9.90,9.89,9.89,9.89,9.85,9.65,9.66,8.06,8.01,7.35,5.96,5.93,5.91,5.90,5.90,5.90,5.90,5.90,5.89,5.88,5.90,5.90,5.90,5.90,5.86,5.83,5.85,5.85,5.85,5.84,5.85,5.64,5.48,5.48,5.48,5.48,5.48,5.48,5.48,5.48,5.48,5.48,5.48,5.48,5.48,5.48,5.48,5.48,5.48,5.48,5.48,5.48,5.48,5.48,5.48,5.48,5.48,5.48,5.48,5.48,5.48,5.48,5.48,5.47,5.47,5.47,5.46,5.46,5.46,5.46,5.44,5.37,5.37,5.39,5.35,5.32,5.31,5.29,5.29,5.28,5.26,5.24,5.24,5.26,5.22,5.22,4.89,4.82,4.82,4.82,4.82,4.82,4.82,4.83,4.83,4.83,4.83,4.83,4.83,4.83,4.83,4.83,4.83,4.83,4.83,4.83,4.83,4.83,4.83,4.83,4.83,4.83,4.83,4.84,4.84,4.84,4.84,4.84,4.84,4.84,4.84,4.84,4.84,4.84,4.84,4.84,4.84,4.85,4.85,4.86,4.86,4.86,4.89,4.90,4.89,4.86,4.86,4.85,4.85,4.83,4.82,4.82,4.78,4.78,4.78,4.78,4.78,4.78,4.78,4.78,4.77,4.73,4.67,4.46,4.33,4.31,4.25,4.24,4.25,4.25,4.22,4.19,4.15,4.09,4.07,4.01,3.97,3.94,3.89,3.86,3.86,3.87,3.84,3.80,3.71,3.65,3.60,3.60,3.59,3.54,3.51,3.46,3.44,3.39,3.34,3.32,3.31,3.25,3.25,3.26,3.26,3.24,3.21,3.12,3.12,3.12,3.03,3.02,2.99,2.93,2.92,2.91,2.89,2.88,2.84,2.83,2.84,2.83,2.80,2.75,2.72,2.69,2.68,2.65,2.63,2.60,2.60,2.59,2.58,2.53,2.52,2.48,2.46,2.45,2.44,2.42,2.42,2.41,2.40,2.39,2.37,2.35,2.33,2.32,2.30,2.29,2.27,2.26,2.24,2.23,2.21,2.20,2.19,2.19,2.17,2.15,2.12,2.10,2.09,2.09,2.09,2.08,2.08,2.07,2.07,2.06,2.06,2.06,2.05,2.05,2.05,2.05,2.04,2.04,1.93,1.89,1.89,1.89,1.89,1.87,1.87,1.87,1.87,1.85,1.84,1.83,1.82,1.81,1.81,1.80,1.79,1.78,1.77,1.77,1.76,1.76,1.75,1.73,1.72,1.70,1.69,1.68,1.67,1.67,1.66,1.66,1.66,1.66,1.65,1.64,1.63,1.63,1.62,1.62,1.61,1.60,1.59,1.57,1.57,1.57,1.56,1.55,1.55,1.55,1.54,1.54,1.53,1.52,1.52,1.51,1.50,1.50,1.49,1.49,1.49,1.48,1.47,1.46,1.46,1.45,1.45,1.45,1.45,1.45,1.45,1.45,1.45,1.45,1.45,1.45,1.45,1.45,1.45
8.35,8.33,8.32,8.32,8.31,8.30,8.29,8.28,8.27,8.26,8.24,8.22,8.21,8.21,8.22,8.24,8.24,8.27,8.33,8.39,8.43,8.49,8.58,8.69,8.78,8.80,8.78,8.78,8.81,8.88,8.89,8.89,8.89,8.89,8.89,8.89,8.90,8.90,8.92,9.10,9.11,8.99,9.07,9.10,9.04,9.07,9.12,9.12,9.13,9.14,9.23,9.35,9.39,9.47,9.57,9.62,9.66,9.75,9.86,9.87,9.80,9.72,9.79,9.87,9.84,9.72,9.63,9.73,9.80,9.82,9.70,9.79,9.84,9.88,9.90,9.92,9.93,9.93,9.93,9.92,9.92,9.92,9.91,9.91,9.91,9.91,9.91,9.91,9.91,9.91,9.91,9.91,9.91,9.91,9.91,9.91,9.91,9.92,9.92,9.92,9.92,9.92,9.92,9.92,9.92,9.92,9.92,9.92,9.92,9.92,9.92,9.92,9.92,9.92,9.92,9.92,9.91,9.91,9.93,9.93,9.91,9.91,9.91,9.91,9.91,9.91,9.91,9.91,9.90,9.90,9.89,9.82,9.83,9.82,9.80,9.83,9.84,9.85,9.86,9.87,9.88,9.84,9.82,9.87,9.90,9.91,9.92,9.92,9.93,9.93,9.93,9.93,9.93,9.93,9.93,9.93,9.93,9.92,9.91,9.90,9.90,9.91,9.91,9.91,9.90,9.88,9.76,9.70,9.74,9.76,9.77,9.81,9.85,9.79,9.67,9.64,9.63,9.64,9.67,9.70,9.79,9.85,9.85,9.80,9.87,9.89,9.89,9.88,9.82,9.80,9.94,9.92,9.92,9.91,9.91,9.90,9.90,9.90,9.89,9.89,9.89,9.89,9.84,9.76,9.83,9.78,9.68,9.76,9.65,9.63,9.63,9.66,9.79,9.86,9.88,9.89,9.89,9.89,9.89,9.89,9.89,9.87,9.77,9.77,9.90,9.90,9.90,9.90,9.90,9.91,9.94,9.94,9.93,9.91,9.94,9.91,9.92,9.89,9.89,9.90,9.90,9.90,9.90,9.90,9.90,9.90,9.90,9.90,9.90,9.92,9.91,9.90,9.90,9.90,9.90,9.90,9.89,9.89,9.85,9.63,9.62,8.33,8.14,7.85,6.17,5.93,5.91,5.90,5.90,5.90,5.90,5.90,5.89,5.88,5.90,5.90,5.90,5.89,5.85,5.82,5.83,5.82,5.82,5.82,5.82,5.63,5.48,5.48,5.48,5.48,5.48,5.48,5.48,5.48,5.48,5.48,5.48,5.48,5.48,5.48,5.48,5.48,5.48,5.48,5.48,5.48,5.48,5.48,5.48,5.48,5.48,5.48,5.48,5.48,5.48,5.48,5.48,5.47,5.47,5.47,5.46,5.46,5.46,5.46,5.44,5.37,5.37,5.41,5.36,5.33,5.32,5.29,5.29,5.28,5.28,5.26,5.24,5.26,5.23,5.24,4.89,4.82,4.82,4.82,4.82,4.82,4.82,4.82,4.82,4.82,4.82,4.83,4.83,4.83,4.83,4.83,4.83,4.83,4.83,4.83,4.83,4.83,4.83,4.83,4.83,4.83,4.84,4.84,4.84,4.84,4.84,4.84,4.84,4.84,4.84,4.84,4.84,4.84,4.84,4.84,4.84,4.85,4.85,4.86,4.86,4.86,4.87,4.89,4.88,4.85,4.85,4.85,4.84,4.84,4.83,4.82,4.78,4.78,4.78,4.77,4.78,4.77,4.78,4.78,4.77,4.75,4.72,4.44,4.32,4.31,4.25,4.25,4.26,4.27,4.24,4.18,4.13,4.09,4.05,4.01,3.97,3.94,3.89,3.85,3.85,3.87,3.81,3.79,3.75,3.64,3.60,3.60,3.58,3.56,3.51,3.47,3.45,3.40,3.37,3.33,3.31,3.25,3.24,3.23,3.23,3.22,3.20,3.12,3.12,3.11,3.03,3.02,3.00,2.95,2.93,2.90,2.89,2.88,2.84,2.83,2.83,2.82,2.79,2.74,2.72,2.69,2.67,2.65,2.63,2.60,2.60,2.60,2.57,2.54,2.53,2.52,2.48,2.46,2.45,2.44,2.42,2.41,2.39,2.37,2.35,2.34,2.33,2.32,2.31,2.29,2.27,2.24,2.22,2.21,2.20,2.20,2.19,2.18,2.16,2.13,2.11,2.10,2.09,2.09,2.08,2.08,2.08,2.07,2.06,2.06,2.06,2.06,2.05,2.05,2.05,2.05,2.04,2.04,1.92,1.89,1.89,1.89,1.89,1.87,1.87,1.87,1.86,1.85,1.84,1.83,1.83,1.82,1.82,1.80,1.79,1.78,1.77,1.77,1.76,1.76,1.76,1.74,1.72,1.71,1.69,1.69,1.68,1.67,1.66,1.66,1.66,1.65,1.65,1.64,1.63,1.63,1.62,1.62,1.61,1.59,1.59,1.58,1.57,1.57,1.55,1.55,1.55,1.54,1.54,1.54,1.53,1.52,1.52,1.51,1.50,1.49,1.49,1.49,1.48,1.47,1.47,1.46,1.45,1.45,1.45,1.45,1.45,1.45,1.45,1.45,1.45,1.45,1.45,1.45,1.45,1.45,1.45
8.77,8.77,8.78,8.78,8.79,8.79,8.79,8.79,8.80,8.80,8.79,8.78,8.78,8.78,8.78,8.78,8.78,8.78,8.78,8.79,8.80,8.80,8.80,8.81,8.81,8.82,8.82,8.81,8.78,8.90,8.97,8.91,8.90,8.89,8.89,8.90,8.91,8.92,8.94,9.08,9.08,9.06,9.10,9.12,9.12,9.14,9.14,9.14,9.15,9.15,9.21,9.34,9.40,9.48,9.57,9.63,9.65,9.79,9.90,9.90,9.82,9.78,9.82,9.87,9.87,9.82,9.76,9.78,9.84,9.84,9.74,9.83,9.86,9.89,9.90,9.92,9.92,9.92,9.93,9.92,9.92,9.92,9.91,9.91,9.91,9.91,9.91,9.91,9.91,9.91,9.91,9.91,9.91,9.91,9.91,9.91,9.92,9.92,9.92,9.92,9.92,9.92,9.92,9.92,9.92,9.92,9.92,9.92,9.92,9.92,9.92,9.92,9.92,9.92,9.92,9.92,9.91,9.91,9.93,9.93,9.91,9.91,9.91,9.91,9.91,9.91,9.91,9.91,9.90,9.90,9.90,9.84,9.85,9.83,9.82,9.82,9.83,9.83,9.86,9.88,9.86,9.74,9.76,9.89,9.92,9.93,9.93,9.93,9.93,9.93,9.93,9.93,9.93,9.93,9.93,9.94,9.94,9.94,9.94,9.96,9.93,9.94,9.94,9.95,9.95,9.96,9.92,9.91,9.89,9.87,9.85,9.82,9.79,9.76,9.71,9.65,9.63,9.63,9.63,9.65,9.67,9.67,9.67,9.70,9.83,9.88,9.89,9.89,9.88,9.89,9.95,9.93,9.94,9.92,9.90,9.93,9.91,9.90,9.89,9.86,9.78,9.84,9.73,9.72,9.80,9.71,9.67,9.67,9.65,9.64,9.64,9.66,9.72,9.86,9.89,9.89,9.90,9.90,9.90,9.86,9.75,9.69,9.68,9.70,9.85,9.88,9.88,9.90,9.90,9.94,9.94,9.94,9.93,9.91,9.95,9.95,9.93,9.90,9.90,9.90,9.90,9.90,9.90,9.90,9.90,9.94,9.90,9.90,9.90,9.91,9.94,9.90,9.90,9.90,9.90,9.89,9.89,9.89,9.89,9.64,9.61,8.76,8.59,8.14,6.03,5.95,5.92,5.90,5.90,5.90,5.90,5.89,5.87,5.88,5.87,5.90,5.90,5.89,5.85,5.82,5.81,5.81,5.81,5.81,5.81,5.67,5.49,5.48,5.48,5.48,5.48,5.48,5.48,5.48,5.49,5.49,5.49,5.48,5.48,5.48,5.48,5.48,5.48,5.48,5.48,5.48,5.48,5.48,5.48,5.48,5.48,5.48,5.48,5.48,5.48,5.48,5.48,5.48,5.47,5.47,5.46,5.46,5.46,5.46,5.39,5.36,5.37,5.41,5.35,5.31,5.31,5.32,5.31,5.31,5.28,5.24,5.22,5.26,5.25,5.25,4.92,4.82,4.82,4.82,4.82,4.82,4.82,4.82,4.82,4.82,4.82,4.82,4.82,4.83,4.83,4.83,4.83,4.83,4.83,4.83,4.83,4.83,4.83,4.83,4.83,4.84,4.84,4.84,4.84,4.84,4.84,4.84,4.84,4.84,4.84,4.84,4.84,4.84,4.84,4.84,4.84,4.85,4.85,4.86,4.86,4.86,4.86,4.87,4.88,4.85,4.85,4.84,4.84,4.84,4.84,4.82,4.78,4.78,4.77,4.75,4.77,4.75,4.75,4.77,4.75,4.73,4.69,4.43,4.31,4.29,4.25,4.25,4.26,4.27,4.24,4.19,4.14,4.08,4.04,4.01,3.97,3.94,3.89,3.84,3.85,3.87,3.80,3.79,3.76,3.65,3.60,3.59,3.59,3.54,3.50,3.46,3.43,3.40,3.36,3.34,3.30,3.25,3.22,3.22,3.21,3.19,3.18,3.13,3.10,3.09,3.04,3.02,3.01,2.96,2.95,2.89,2.88,2.87,2.85,2.83,2.81,2.80,2.79,2.76,2.74,2.73,2.67,2.65,2.65,2.63,2.61,2.59,2.58,2.57,2.56,2.49,2.48,2.47,2.45,2.43,2.40,2.39,2.38,2.37,2.36,2.34,2.33,2.32,2.29,2.27,2.25,2.23,2.23,2.21,2.20,2.20,2.19,2.18,2.15,2.12,2.11,2.10,2.08,2.08,2.08,2.08,2.07,2.07,2.06,2.06,2.06,2.06,2.05,2.05,2.05,2.04,2.03,2.03,1.92,1.89,1.89,1.89,1.89,1.87,1.88,1.87,1.86,1.85,1.84,1.84,1.83,1.83,1.82,1.81,1.78,1.78,1.78,1.77,1.76,1.75,1.76,1.73,1.72,1.72,1.70,1.69,1.68,1.68,1.67,1.66,1.65,1.65,1.65,1.64,1.63,1.62,1.62,1.62,1.60,1.59,1.59,1.59,1.57,1.57,1.55,1.55,1.55,1.54,1.54,1.54,1.53,1.53,1.52,1.51,1.50,1.49,1.48,1.48,1.48,1.47,1.47,1.46,1.45,1.44,1.45,1.45,1.45,1.45,1.45,1.45,1.45,1.45,1.45,1.45,1.45,1.45,1.45
8.77,8.77,8.78,8.79,8.80,8.80,8.80,8.81,8.81,8.81,8.81,8.82,8.82,8.82,8.82,8.82,8.82,8.82,8.82,8.82,8.82,8.82,8.82,8.82,8.82,8.83,8.85,8.88,8.95,8.98,8.93,8.89,8.88,8.89,8.90,8.90,8.90,8.99,9.02,9.07,9.12,9.13,9.16,9.18,9.19,9.22,9.20,9.23,9.20,9.16,9.27,9.36,9.39,9.47,9.64,9.75,9.70,9.85,9.89,9.90,9.90,9.87,9.88,9.93,9.87,9.87,9.88,9.84,9.80,9.76,9.68,9.86,9.89,9.89,9.90,9.91,9.92,9.92,9.92,9.92,9.92,9.91,9.91,9.91,9.91,9.91,9.91,9.91,9.91,9.91,9.91,9.92,9.92,9.92,9.92,9.92,9.92,9.92,9.92,9.92,9.92,9.92,9.92,9.92,9.92,9.92,9.92,9.92,9.92,9.92,9.93,9.93,9.93,9.93,9.92,9.92,9.91,9.91,9.93,9.93,9.91,9.91,9.91,9.91,9.91,9.91,9.91,9.91,9.90,9.90,9.90,9.86,9.87,9.86,9.82,9.81,9.81,9.81,9.86,9.88,9.84,9.81,9.84,9.89,9.91,9.92,9.92,9.92,9.93,9.93,9.93,9.93,9.93,9.93,9.93,9.94,9.94,9.94,9.95,9.94,9.94,9.94,9.94,9.95,9.95,9.94,9.93,9.91,9.89,9.87,9.85,9.84,9.86,9.85,9.81,9.66,9.64,9.65,9.77,9.73,9.76,9.83,9.69,9.67,9.68,9.69,9.69,9.75,9.80,9.79,9.88,9.91,9.91,9.89,9.87,9.86,9.85,9.81,9.75,9.84,9.84,9.86,9.86,9.86,9.89,9.90,9.90,9.91,9.90,9.89,9.87,9.89,9.90,9.90,9.90,9.90,9.90,9.93,9.90,9.85,9.70,9.65,9.64,9.65,9.78,9.78,9.86,9.90,9.90,9.90,9.93,9.93,9.93,9.92,9.93,9.94,9.95,9.90,9.90,9.90,9.90,9.90,9.90,9.90,9.91,9.92,9.90,9.90,9.90,9.91,9.91,9.90,9.90,9.89,9.89,9.89,9.89,9.87,9.86,9.67,9.64,9.28,9.11,8.22,6.04,5.96,5.92,5.90,5.90,5.90,5.90,5.88,5.84,5.85,5.85,5.90,5.90,5.89,5.84,5.81,5.81,5.81,5.81,5.81,5.81,5.66,5.49,5.48,5.48,5.48,5.48,5.48,5.49,5.49,5.49,5.49,5.49,5.49,5.49,5.48,5.48,5.48,5.48,5.48,5.48,5.48,5.48,5.48,5.48,5.48,5.48,5.48,5.48,5.48,5.48,5.48,5.48,5.47,5.47,5.46,5.46,5.46,5.46,5.45,5.37,5.33,5.36,5.37,5.35,5.31,5.32,5.34,5.32,5.33,5.29,5.26,5.23,5.26,5.27,5.27,4.93,4.82,4.82,4.82,4.82,4.82,4.82,4.82,4.82,4.82,4.82,4.82,4.82,4.82,4.83,4.83,4.83,4.83,4.83,4.83,4.83,4.83,4.83,4.83,4.84,4.84,4.84,4.84,4.84,4.84,4.84,4.84,4.84,4.84,4.84,4.84,4.84,4.84,4.84,4.84,4.84,4.85,4.85,4.85,4.85,4.86,4.87,4.89,4.89,4.86,4.84,4.84,4.84,4.84,4.83,4.81,4.78,4.77,4.75,4.74,4.75,4.73,4.73,4.76,4.73,4.70,4.64,4.45,4.30,4.27,4.25,4.24,4.26,4.25,4.23,4.19,4.15,4.08,4.04,4.00,3.96,3.94,3.88,3.85,3.85,3.87,3.80,3.80,3.77,3.67,3.60,3.59,3.60,3.53,3.47,3.46,3.43,3.39,3.37,3.32,3.29,3.25,3.22,3.21,3.21,3.19,3.16,3.13,3.13,3.12,3.03,3.03,3.02,2.94,2.94,2.88,2.87,2.87,2.86,2.85,2.81,2.79,2.79,2.77,2.74,2.73,2.67,2.65,2.64,2.63,2.62,2.59,2.58,2.57,2.55,2.52,2.49,2.46,2.44,2.43,2.40,2.39,2.38,2.37,2.35,2.33,2.31,2.29,2.26,2.25,2.24,2.23,2.23,2.21,2.20,2.19,2.19,2.17,2.15,2.13,2.11,2.10,2.09,2.07,2.08,2.07,2.07,2.07,2.05,2.05,2.05,2.05,2.05,2.05,2.05,2.03,2.03,2.03,1.93,1.89,1.89,1.89,1.89,1.88,1.88,1.87,1.87,1.85,1.84,1.84,1.84,1.84,1.83,1.81,1.79,1.78,1.77,1.76,1.75,1.75,1.74,1.73,1.73,1.72,1.70,1.69,1.69,1.68,1.67,1.67,1.66,1.66,1.65,1.63,1.63,1.62,1.62,1.61,1.59,1.59,1.59,1.58,1.57,1.57,1.56,1.55,1.55,1.54,1.54,1.54,1.53,1.53,1.52,1.51,1.51,1.49,1.48,1.48,1.48,1.48,1.46,1.46,1.45,1.45,1.45,1.45,1.45,1.45,1.45,1.45,1.45,1.45,1.45,1.45,1.45,1.45,1.45
8.77,8.77,8.78,8.78,8.80,8.80,8.80,8.81,8.81,8.81,8.82,8.82,8.82,8.82,8.82,8.82,8.82,8.82,8.82,8.82,8.83,8.83,8.82,8.82,8.82,8.82,8.83,8.86,8.95,8.92,8.87,8.81,8.86,8.88,8.90,8.90,8.90,8.91,9.09,9.12,9.12,9.13,9.16,9.30,9.42,9.34,9.48,9.50,9.32,9.37,9.38,9.42,9.44,9.49,9.61,9.78,9.87,9.88,9.90,9.90,9.90,9.90,9.90,9.93,9.95,9.89,9.88,9.84,9.76,9.74,9.70,9.88,9.89,9.90,9.90,9.91,9.92,9.92,9.92,9.92,9.92,9.91,9.91,9.91,9.91,9.91,9.91,9.91,9.91,9.91,9.91,9.92,9.92,9.92,9.92,9.92,9.92,9.92,9.92,9.92,9.92,9.92,9.92,9.92,9.92,9.92,9.92,9.92,9.92,9.92,9.93,9.93,9.93,9.93,9.92,9.92,9.91,9.91,9.93,9.94,9.91,9.91,9.91,9.91,9.91,9.91,9.91,9.90,9.90,9.90,9.90,9.87,9.87,9.87,9.83,9.81,9.79,9.79,9.86,9.84,9.78,9.70,9.71,9.86,9.90,9.91,9.92,9.93,9.92,9.93,9.93,9.93,9.93,9.93,9.93,9.93,9.93,9.93,9.93,9.93,9.93,9.93,9.93,9.93,9.93,9.92,9.91,9.90,9.89,9.89,9.88,9.86,9.84,9.79,9.81,9.87,9.88,9.88,9.88,9.89,9.89,9.88,9.83,9.87,9.86,9.86,9.86,9.87,9.87,9.87,9.89,9.88,9.86,9.84,9.77,9.67,9.66,9.65,9.65,9.71,9.75,9.87,9.89,9.90,9.90,9.90,9.91,9.91,9.90,9.90,9.90,9.90,9.90,9.90,9.90,9.90,9.90,9.91,9.90,9.85,9.71,9.65,9.66,9.65,9.82,9.83,9.86,9.90,9.90,9.90,9.93,9.93,9.93,9.93,9.93,9.95,9.95,9.94,9.91,9.90,9.90,9.90,9.90,9.90,9.90,9.90,9.90,9.90,9.91,9.92,9.93,9.91,9.91,9.90,9.88,9.85,9.73,9.75,9.75,9.78,9.69,9.45,9.69,8.79,6.56,6.00,5.92,5.90,5.90,5.90,5.90,5.88,5.84,5.85,5.85,5.90,5.90,5.88,5.83,5.81,5.82,5.83,5.81,5.81,5.81,5.69,5.49,5.49,5.49,5.49,5.49,5.49,5.49,5.49,5.49,5.49,5.49,5.49,5.49,5.49,5.49,5.48,5.48,5.48,5.48,5.48,5.48,5.48,5.48,5.48,5.48,5.48,5.48,5.48,5.48,5.48,5.48,5.48,5.47,5.47,5.46,5.45,5.45,5.43,5.35,5.31,5.34,5.36,5.35,5.32,5.30,5.33,5.31,5.31,5.29,5.28,5.26,5.27,5.28,5.28,4.95,4.82,4.82,4.82,4.82,4.82,4.82,4.82,4.82,4.82,4.82,4.82,4.82,4.82,4.82,4.83,4.83,4.83,4.83,4.83,4.83,4.83,4.83,4.84,4.84,4.84,4.84,4.84,4.84,4.84,4.84,4.84,4.84,4.84,4.84,4.84,4.84,4.84,4.84,4.84,4.84,4.85,4.85,4.85,4.85,4.86,4.89,4.90,4.89,4.86,4.85,4.84,4.82,4.82,4.81,4.79,4.77,4.76,4.72,4.73,4.73,4.72,4.72,4.73,4.72,4.70,4.64,4.49,4.29,4.27,4.25,4.25,4.26,4.26,4.24,4.22,4.16,4.09,4.05,3.99,3.96,3.95,3.89,3.87,3.87,3.87,3.80,3.80,3.77,3.69,3.61,3.59,3.55,3.50,3.47,3.46,3.45,3.41,3.37,3.32,3.28,3.25,3.22,3.21,3.21,3.20,3.18,3.14,3.14,3.14,3.04,3.03,3.03,2.93,2.93,2.88,2.87,2.87,2.86,2.86,2.82,2.79,2.78,2.75,2.72,2.70,2.67,2.66,2.66,2.63,2.62,2.61,2.58,2.56,2.52,2.49,2.47,2.45,2.45,2.43,2.43,2.41,2.37,2.35,2.34,2.33,2.32,2.30,2.26,2.25,2.24,2.23,2.23,2.22,2.19,2.19,2.18,2.18,2.17,2.15,2.13,2.10,2.09,2.08,2.08,2.07,2.05,2.04,2.02,2.01,2.02,2.04,2.05,2.05,2.04,2.04,2.03,2.03,1.94,1.89,1.89,1.89,1.89,1.88,1.87,1.87,1.87,1.86,1.85,1.84,1.84,1.84,1.83,1.82,1.80,1.79,1.77,1.75,1.75,1.75,1.74,1.73,1.72,1.72,1.71,1.70,1.69,1.68,1.67,1.67,1.67,1.66,1.65,1.63,1.63,1.62,1.62,1.60,1.59,1.59,1.59,1.58,1.57,1.56,1.55,1.55,1.54,1.54,1.54,1.54,1.54,1.53,1.53,1.52,1.50,1.48,1.48,1.48,1.48,1.47,1.46,1.46,1.45,1.45,1.45,1.45,1.45,1.45,1.45,1.45,1.45,1.45,1.45,1.45,1.45,1.45,1.45
8.77,8.77,8.78,8.79,8.79,8.80,8.80,8.81,8.81,8.81,8.82,8.82,8.82,8.82,8.82,8.82,8.82,8.82,8.82,8.82,8.83,8.83,8.83,8.81,8.81,8.82,8.82,8.80,8.79,8.82,8.81,8.82,8.84,8.86,8.91,8.91,8.91,8.91,9.10,9.12,9.12,9.13,9.17,9.27,9.51,9.57,9.60,9.58,9.45,9.41,9.39,9.40,9.42,9.51,9.70,9.83,9.88,9.89,9.90,9.90,9.90,9.90,9.91,9.94,9.93,9.91,9.90,9.89,9.89,9.86,9.79,9.86,9.93,9.90,9.90,9.91,9.92,9.92,9.92,9.92,9.92,9.91,9.91,9.91,9.91,9.91,9.91,9.91,9.91,9.91,9.91,9.92,9.92,9.92,9.92,9.92,9.92,9.92,9.92,9.92,9.92,9.92,9.92,9.92,9.92,9.92,9.92,9.92,9.92,9.92,9.93,9.93,9.93,9.93,9.92,9.91,9.91,9.92,9.94,9.95,9.91,9.91,9.91,9.91,9.91,9.91,9.91,9.90,9.90,9.90,9.90,9.88,9.88,9.88,9.84,9.82,9.78,9.76,9.82,9.70,9.70,9.68,9.70,9.86,9.88,9.90,9.91,9.91,9.92,9.92,9.92,9.92,9.92,9.91,9.91,9.91,9.91,9.91,9.91,9.90,9.90,9.90,9.90,9.90,9.90,9.90,9.90,9.89,9.89,9.89,9.89,9.89,9.88,9.86,9.83,9.88,9.89,9.89,9.89,9.89,9.89,9.88,9.89,9.88,9.86,9.85,9.86,9.86,9.85,9.87,9.87,9.88,9.81,9.73,9.67,9.66,9.64,9.64,9.65,9.70,9.82,9.86,9.89,9.91,9.90,9.90,9.90,9.90,9.90,9.90,9.91,9.91,9.92,9.92,9.90,9.89,9.83,9.82,9.82,9.82,9.84,9.76,9.77,9.67,9.87,9.88,9.88,9.90,9.90,9.90,9.92,9.93,9.93,9.93,9.94,9.95,9.95,9.96,9.91,9.90,9.90,9.90,9.90,9.90,9.90,9.92,9.93,9.96,9.93,9.92,9.93,9.95,9.96,9.94,9.92,9.75,9.64,9.65,9.66,9.69,9.71,9.70,9.61,9.56,7.11,5.93,5.92,5.90,5.90,5.90,5.90,5.89,5.87,5.88,5.86,5.89,5.89,5.87,5.83,5.81,5.82,5.83,5.81,5.81,5.81,5.72,5.49,5.49,5.49,5.49,5.49,5.49,5.49,5.49,5.49,5.49,5.49,5.49,5.49,5.49,5.49,5.49,5.49,5.49,5.48,5.48,5.48,5.48,5.48,5.48,5.48,5.48,5.48,5.48,5.48,5.48,5.48,5.48,5.48,5.48,5.46,5.46,5.44,5.38,5.37,5.33,5.33,5.35,5.35,5.33,5.31,5.33,5.31,5.29,5.29,5.28,5.26,5.27,5.28,5.28,4.94,4.82,4.82,4.82,4.82,4.82,4.82,4.82,4.82,4.82,4.82,4.82,4.82,4.82,4.82,4.82,4.83,4.83,4.83,4.83,4.83,4.83,4.83,4.84,4.84,4.84,4.84,4.84,4.84,4.84,4.84,4.84,4.84,4.84,4.84,4.84,4.84,4.84,4.84,4.84,4.85,4.85,4.85,4.85,4.85,4.85,4.87,4.88,4.87,4.85,4.85,4.84,4.82,4.80,4.78,4.78,4.77,4.75,4.72,4.72,4.72,4.72,4.72,4.72,4.71,4.70,4.68,4.54,4.29,4.26,4.26,4.26,4.26,4.26,4.26,4.24,4.16,4.09,4.06,4.01,3.96,3.96,3.90,3.88,3.88,3.87,3.81,3.79,3.76,3.71,3.61,3.58,3.53,3.50,3.49,3.47,3.46,3.43,3.39,3.31,3.28,3.25,3.22,3.21,3.21,3.20,3.19,3.15,3.15,3.15,3.04,3.03,3.03,2.91,2.91,2.87,2.87,2.86,2.86,2.85,2.85,2.80,2.76,2.73,2.72,2.71,2.68,2.66,2.65,2.64,2.62,2.60,2.56,2.53,2.50,2.47,2.46,2.45,2.45,2.44,2.43,2.39,2.35,2.35,2.34,2.33,2.32,2.31,2.29,2.25,2.24,2.23,2.22,2.21,2.19,2.19,2.19,2.18,2.18,2.17,2.16,2.12,2.11,2.09,2.07,2.04,2.03,2.02,2.01,2.01,2.01,2.01,2.04,2.04,2.04,2.04,2.02,2.02,1.93,1.89,1.89,1.89,1.89,1.88,1.87,1.87,1.87,1.86,1.85,1.84,1.84,1.84,1.83,1.82,1.80,1.79,1.77,1.75,1.75,1.74,1.74,1.73,1.72,1.72,1.71,1.70,1.69,1.69,1.68,1.67,1.66,1.65,1.65,1.63,1.63,1.62,1.62,1.60,1.59,1.59,1.59,1.58,1.57,1.55,1.55,1.54,1.54,1.54,1.54,1.54,1.54,1.53,1.54,1.53,1.52,1.49,1.48,1.48,1.47,1.46,1.45,1.45,1.45,1.45,1.45,1.45,1.45,1.45,1.45,1.45,1.45,1.45,1.45,1.45,1.45,1.45,1.45
8.76,8.77,8.79,8.80,8.80,8.80,8.80,8.80,8.81,8.81,8.82,8.82,8.82,8.82,8.82,8.82,8.82,8.82,8.82,8.82,8.83,8.83,8.83,8.80,8.79,8.80,8.79,8.78,8.78,8.72,8.67,8.68,8.68,8.84,8.93,9.00,8.94,8.99,9.11,9.12,9.12,9.13,9.16,9.26,9.49,9.60,9.62,9.62,9.53,9.50,9.46,9.51,9.53,9.57,9.79,9.88,9.88,9.89,9.90,9.90,9.90,9.89,9.90,9.90,9.90,9.90,9.90,9.89,9.89,9.89,9.89,9.90,9.93,9.92,9.91,9.92,9.92,9.92,9.92,9.92,9.92,9.91,9.91,9.91,9.91,9.91,9.91,9.91,9.91,9.91,9.91,9.92,9.92,9.92,9.92,9.92,9.92,9.92,9.92,9.92,9.92,9.92,9.92,9.92,9.92,9.92,9.92,9.92,9.92,9.92,9.93,9.93,9.93,9.93,9.92,9.91,9.90,9.91,9.96,9.94,9.91,9.91,9.91,9.91,9.91,9.91,9.90,9.90,9.90,9.90,9.90,9.89,9.88,9.88,9.85,9.83,9.78,9.68,9.81,9.77,9.80,9.74,9.80,9.88,9.89,9.89,9.90,9.90,9.91,9.91,9.90,9.90,9.90,9.90,9.90,9.90,9.90,9.90,9.90,9.90,9.90,9.90,9.90,9.90,9.90,9.90,9.90,9.89,9.89,9.89,9.89,9.89,9.89,9.88,9.89,9.88,9.89,9.89,9.89,9.89,9.89,9.89,9.87,9.85,9.86,9.85,9.85,9.84,9.84,9.82,9.81,9.83,9.78,9.65,9.64,9.64,9.65,9.67,9.68,9.70,9.77,9.87,9.91,9.90,9.90,9.90,9.90,9.90,9.90,9.90,9.90,9.91,9.92,9.95,9.93,9.80,9.79,9.81,9.80,9.81,9.81,9.78,9.75,9.69,9.88,9.89,9.89,9.90,9.92,9.92,9.92,9.92,9.92,9.93,9.93,9.94,9.94,9.96,9.91,9.90,9.90,9.90,9.90,9.91,9.92,9.92,9.92,9.92,9.92,9.93,9.92,9.93,9.95,9.95,9.93,9.76,9.63,9.63,9.64,9.64,9.64,9.63,9.45,8.95,6.71,5.91,5.91,5.90,5.90,5.90,5.90,5.90,5.90,5.87,5.85,5.89,5.88,5.86,5.82,5.81,5.81,5.81,5.81,5.80,5.80,5.73,5.49,5.49,5.49,5.49,5.49,5.49,5.49,5.49,5.49,5.49,5.49,5.49,5.49,5.49,5.49,5.49,5.49,5.49,5.49,5.49,5.48,5.48,5.48,5.48,5.48,5.48,5.48,5.48,5.48,5.48,5.48,5.48,5.48,5.48,5.47,5.48,5.45,5.41,5.38,5.36,5.36,5.36,5.36,5.36,5.33,5.34,5.33,5.29,5.29,5.28,5.28,5.28,5.28,5.28,4.98,4.82,4.82,4.82,4.82,4.82,4.82,4.82,4.82,4.82,4.82,4.82,4.82,4.82,4.82,4.82,4.82,4.83,4.83,4.83,4.83,4.83,4.83,4.84,4.84,4.84,4.84,4.84,4.84,4.84,4.84,4.84,4.84,4.84,4.84,4.84,4.84,4.84,4.84,4.84,4.85,4.85,4.85,4.85,4.85,4.85,4.85,4.85,4.86,4.85,4.85,4.84,4.82,4.78,4.78,4.78,4.77,4.75,4.72,4.72,4.72,4.72,4.72,4.71,4.70,4.67,4.66,4.52,4.30,4.26,4.26,4.26,4.26,4.26,4.26,4.23,4.15,4.07,4.04,4.02,3.96,3.94,3.91,3.88,3.86,3.85,3.80,3.79,3.75,3.71,3.61,3.59,3.53,3.52,3.49,3.47,3.46,3.45,3.41,3.32,3.30,3.25,3.23,3.21,3.21,3.20,3.19,3.16,3.16,3.16,3.04,3.04,3.03,2.89,2.88,2.87,2.87,2.86,2.86,2.86,2.85,2.79,2.73,2.73,2.72,2.71,2.69,2.66,2.63,2.61,2.60,2.58,2.57,2.54,2.53,2.51,2.50,2.49,2.48,2.47,2.45,2.43,2.39,2.35,2.34,2.34,2.33,2.30,2.26,2.26,2.25,2.24,2.21,2.19,2.19,2.19,2.19,2.19,2.18,2.17,2.15,2.12,2.10,2.08,2.04,2.04,2.02,2.02,2.01,2.01,2.01,2.01,2.01,2.02,2.02,2.03,2.02,2.02,1.91,1.89,1.89,1.89,1.89,1.88,1.88,1.87,1.87,1.86,1.85,1.84,1.84,1.83,1.82,1.82,1.81,1.79,1.77,1.75,1.75,1.74,1.74,1.73,1.73,1.72,1.72,1.70,1.70,1.69,1.68,1.67,1.66,1.66,1.64,1.64,1.63,1.62,1.62,1.60,1.59,1.59,1.59,1.59,1.57,1.55,1.55,1.54,1.54,1.54,1.54,1.55,1.54,1.55,1.54,1.54,1.53,1.49,1.48,1.48,1.48,1.46,1.45,1.45,1.45,1.45,1.45,1.45,1.45,1.45,1.45,1.45,1.45,1.45,1.45,1.45,1.45,1.45,1.45
8.76,8.76,8.79,8.81,8.81,8.80,8.80,8.80,8.81,8.82,8.82,8.82,8.82,8.82,8.82,8.82,8.82,8.82,8.82,8.82,8.84,8.84,8.83,8.80,8.79,8.79,8.78,8.77,8.75,8.72,8.58,8.58,8.69,8.87,8.97,9.08,9.03,9.06,9.12,9.12,9.12,9.13,9.14,9.16,9.48,9.61,9.64,9.64,9.61,9.60,9.54,9.70,9.71,9.76,9.84,9.87,9.90,9.90,9.90,9.89,9.89,9.89,9.89,9.89,9.89,9.90,9.90,9.90,9.90,9.91,9.96,9.95,9.94,9.93,9.92,9.92,9.92,9.92,9.92,9.92,9.92,9.91,9.91,9.91,9.91,9.91,9.91,9.91,9.91,9.91,9.91,9.92,9.92,9.92,9.92,9.92,9.92,9.92,9.92,9.92,9.92,9.92,9.92,9.92,9.92,9.92,9.92,9.92,9.92,9.92,9.93,9.93,9.93,9.93,9.94,9.92,9.90,9.91,9.92,9.93,9.91,9.91,9.91,9.91,9.91,9.90,9.90,9.90,9.90,9.90,9.90,9.89,9.88,9.88,9.86,9.86,9.68,9.67,9.71,9.83,9.85,9.81,9.82,9.89,9.89,9.90,9.90,9.91,9.91,9.91,9.90,9.90,9.90,9.90,9.90,9.90,9.90,9.90,9.90,9.90,9.90,9.90,9.90,9.90,9.90,9.90,9.90,9.89,9.89,9.89,9.89,9.89,9.89,9.90,9.89,9.89,9.89,9.89,9.89,9.89,9.89,9.89,9.86,9.84,9.84,9.84,9.84,9.84,9.84,9.80,9.80,9.73,9.70,9.67,9.64,9.64,9.68,9.77,9.78,9.78,9.83,9.88,9.89,9.90,9.89,9.90,9.90,9.90,9.90,9.90,9.90,9.90,9.91,9.91,9.89,9.74,9.83,9.79,9.80,9.81,9.81,9.81,9.82,9.73,9.88,9.90,9.90,9.90,9.95,9.93,9.91,9.92,9.92,9.92,9.92,9.92,9.92,9.92,9.90,9.90,9.90,9.90,9.91,9.95,9.93,9.92,9.92,9.92,9.92,9.92,9.93,9.93,9.91,9.90,9.87,9.77,9.63,9.65,9.65,9.64,9.62,9.62,9.33,8.43,6.28,5.91,5.91,5.90,5.90,5.90,5.90,5.90,5.90,5.88,5.85,5.89,5.86,5.83,5.81,5.81,5.81,5.81,5.81,5.80,5.78,5.74,5.49,5.49,5.49,5.49,5.49,5.49,5.49,5.49,5.49,5.49,5.49,5.49,5.49,5.49,5.49,5.49,5.49,5.49,5.49,5.49,5.49,5.49,5.48,5.48,5.48,5.48,5.48,5.48,5.48,5.48,5.48,5.48,5.48,5.48,5.48,5.48,5.45,5.45,5.39,5.36,5.36,5.36,5.36,5.36,5.34,5.34,5.35,5.29,5.28,5.28,5.28,5.28,5.28,5.28,4.94,4.82,4.82,4.82,4.82,4.82,4.82,4.82,4.82,4.82,4.82,4.82,4.82,4.82,4.82,4.82,4.82,4.83,4.83,4.83,4.83,4.83,4.83,4.84,4.84,4.84,4.84,4.84,4.84,4.84,4.84,4.84,4.84,4.84,4.84,4.84,4.84,4.84,4.84,4.85,4.85,4.85,4.85,4.85,4.85,4.85,4.85,4.85,4.87,4.87,4.87,4.84,4.82,4.79,4.79,4.78,4.77,4.77,4.74,4.73,4.74,4.73,4.72,4.71,4.67,4.64,4.62,4.50,4.31,4.29,4.26,4.26,4.26,4.26,4.26,4.25,4.20,4.08,4.07,4.02,3.95,3.93,3.90,3.87,3.85,3.84,3.80,3.80,3.74,3.71,3.60,3.59,3.55,3.55,3.52,3.48,3.46,3.44,3.41,3.33,3.30,3.26,3.23,3.21,3.20,3.20,3.19,3.17,3.17,3.17,3.05,3.04,3.03,2.88,2.88,2.87,2.87,2.86,2.86,2.85,2.85,2.81,2.77,2.74,2.72,2.69,2.67,2.64,2.62,2.61,2.60,2.58,2.55,2.55,2.53,2.51,2.50,2.49,2.47,2.46,2.44,2.42,2.39,2.36,2.34,2.34,2.32,2.30,2.29,2.26,2.25,2.24,2.20,2.19,2.19,2.19,2.19,2.19,2.18,2.16,2.15,2.13,2.09,2.05,2.04,2.04,2.03,2.02,2.01,2.01,2.01,2.01,2.01,2.01,2.02,2.02,2.02,2.02,1.91,1.89,1.89,1.89,1.89,1.89,1.88,1.87,1.86,1.86,1.85,1.84,1.83,1.83,1.82,1.82,1.81,1.80,1.77,1.75,1.74,1.74,1.74,1.73,1.73,1.72,1.72,1.71,1.70,1.69,1.68,1.67,1.66,1.66,1.64,1.64,1.63,1.61,1.61,1.60,1.59,1.59,1.59,1.59,1.59,1.58,1.56,1.55,1.55,1.54,1.54,1.55,1.55,1.55,1.55,1.54,1.52,1.49,1.49,1.48,1.47,1.46,1.46,1.45,1.45,1.45,1.45,1.45,1.45,1.45,1.45,1.45,1.45,1.45,1.45,1.45,1.45,1.45,1.45
8.76,8.76,8.78,8.81,8.81,8.81,8.80,8.80,8.81,8.82,8.82,8.82,8.82,8.82,8.82,8.83,8.83,8.83,8.83,8.83,8.84,8.84,8.84,8.83,8.81,8.79,8.78,8.77,8.77,8.77,8.74,8.66,8.68,8.75,8.92,9.11,9.11,9.10,9.12,9.12,9.12,9.13,9.14,9.20,9.44,9.62,9.68,9.71,9.64,9.62,9.63,9.82,9.85,9.86,9.89,9.93,9.93,9.90,9.89,9.89,9.89,9.89,9.88,9.88,9.89,9.90,9.90,9.90,9.91,9.92,9.95,9.95,9.95,9.93,9.92,9.92,9.92,9.92,9.92,9.92,9.92,9.91,9.91,9.91,9.91,9.91,9.91,9.91,9.91,9.91,9.91,9.92,9.92,9.92,9.92,9.92,9.92,9.92,9.92,9.92,9.92,9.92,9.92,9.92,9.92,9.92,9.92,9.92,9.92,9.92,9.92,9.92,9.93,9.93,9.93,9.92,9.90,9.90,9.91,9.91,9.91,9.91,9.91,9.91,9.91,9.91,9.90,9.90,9.90,9.90,9.90,9.89,9.89,9.89,9.87,9.86,9.67,9.72,9.83,9.88,9.90,9.86,9.85,9.89,9.89,9.89,9.89,9.89,9.89,9.89,9.89,9.89,9.89,9.89,9.89,9.89,9.89,9.89,9.89,9.89,9.89,9.90,9.90,9.90,9.90,9.90,9.90,9.89,9.89,9.89,9.89,9.89,9.89,9.89,9.89,9.89,9.89,9.89,9.89,9.89,9.89,9.89,9.87,9.84,9.84,9.84,9.84,9.84,9.84,9.80,9.76,9.68,9.66,9.68,9.72,9.66,9.70,9.83,9.88,9.85,9.89,9.88,9.89,9.89,9.90,9.90,9.90,9.90,9.90,9.90,9.90,9.91,9.91,9.90,9.88,9.73,9.78,9.79,9.80,9.81,9.81,9.84,9.90,9.87,9.89,9.90,9.90,9.90,9.91,9.91,9.91,9.90,9.90,9.90,9.90,9.90,9.90,9.90,9.90,9.90,9.90,9.90,9.91,9.95,9.94,9.93,9.92,9.92,9.93,9.93,9.93,9.93,9.94,9.91,9.90,9.86,9.79,9.73,9.70,9.66,9.60,9.57,9.42,8.88,6.75,5.91,5.91,5.91,5.91,5.90,5.90,5.90,5.90,5.88,5.84,5.86,5.84,5.82,5.81,5.81,5.81,5.81,5.81,5.80,5.78,5.75,5.49,5.49,5.49,5.49,5.49,5.49,5.49,5.49,5.49,5.49,5.49,5.49,5.49,5.49,5.49,5.49,5.49,5.49,5.49,5.49,5.49,5.49,5.49,5.49,5.49,5.48,5.48,5.48,5.48,5.48,5.48,5.48,5.48,5.48,5.48,5.48,5.46,5.45,5.40,5.37,5.36,5.36,5.36,5.36,5.31,5.33,5.35,5.31,5.29,5.28,5.28,5.28,5.28,5.28,5.01,4.82,4.82,4.81,4.81,4.82,4.81,4.82,4.82,4.82,4.82,4.82,4.82,4.82,4.82,4.82,4.82,4.83,4.82,4.82,4.83,4.83,4.83,4.84,4.84,4.84,4.84,4.84,4.84,4.84,4.84,4.84,4.84,4.84,4.84,4.84,4.84,4.84,4.84,4.85,4.85,4.85,4.85,4.85,4.85,4.85,4.85,4.85,4.87,4.90,4.88,4.84,4.84,4.81,4.79,4.78,4.78,4.78,4.76,4.76,4.76,4.72,4.72,4.71,4.66,4.63,4.62,4.52,4.32,4.29,4.26,4.26,4.26,4.26,4.26,4.26,4.23,4.12,4.11,4.01,3.94,3.93,3.90,3.87,3.87,3.86,3.79,3.78,3.74,3.71,3.63,3.60,3.60,3.59,3.57,3.50,3.46,3.43,3.39,3.33,3.29,3.26,3.24,3.21,3.20,3.21,3.20,3.18,3.18,3.18,3.05,3.04,3.04,2.89,2.88,2.87,2.86,2.86,2.86,2.85,2.84,2.82,2.78,2.74,2.71,2.70,2.68,2.66,2.62,2.61,2.60,2.58,2.56,2.55,2.53,2.52,2.51,2.50,2.49,2.45,2.42,2.40,2.38,2.36,2.36,2.35,2.32,2.32,2.30,2.26,2.24,2.24,2.19,2.18,2.19,2.19,2.19,2.18,2.18,2.14,2.14,2.14,2.08,2.05,2.05,2.04,2.03,2.02,2.01,2.01,2.01,2.01,2.01,2.01,2.01,2.02,2.02,2.02,1.91,1.89,1.89,1.89,1.89,1.88,1.87,1.87,1.86,1.85,1.84,1.84,1.83,1.83,1.82,1.82,1.81,1.80,1.76,1.75,1.74,1.74,1.73,1.73,1.73,1.72,1.72,1.71,1.70,1.69,1.69,1.68,1.68,1.66,1.66,1.65,1.63,1.61,1.61,1.61,1.60,1.59,1.59,1.59,1.59,1.58,1.56,1.55,1.55,1.54,1.55,1.55,1.55,1.55,1.55,1.53,1.51,1.50,1.48,1.48,1.47,1.46,1.46,1.46,1.45,1.45,1.45,1.45,1.45,1.45,1.45,1.45,1.45,1.45,1.45,1.45,1.45,1.45,1.45
8.76,8.77,8.79,8.81,8.81,8.81,8.81,8.81,8.82,8.83,8.82,8.83,8.82,8.82,8.82,8.83,8.84,8.84,8.83,8.84,8.85,8.87,8.87,8.88,8.86,8.80,8.78,8.78,8.77,8.77,8.77,8.74,8.71,8.76,8.88,9.11,9.12,9.12,9.12,9.12,9.13,9.13,9.14,9.19,9.47,9.64,9.69,9.73,9.66,9.63,9.64,9.73,9.83,9.87,9.90,9.90,9.91,9.88,9.87,9.86,9.86,9.86,9.85,9.85,9.88,9.89,9.90,9.91,9.96,9.92,9.92,9.94,9.94,9.93,9.92,9.92,9.92,9.92,9.92,9.92,9.92,9.91,9.91,9.91,9.91,9.91,9.91,9.91,9.91,9.91,9.91,9.92,9.92,9.92,9.92,9.92,9.92,9.92,9.92,9.92,9.92,9.92,9.92,9.92,9.92,9.92,9.92,9.92,9.92,9.92,9.92,9.92,9.92,9.93,9.93,9.92,9.93,9.93,9.92,9.92,9.91,9.91,9.91,9.91,9.91,9.90,9.90,9.90,9.90,9.90,9.90,9.89,9.89,9.89,9.88,9.84,9.69,9.86,9.87,9.89,9.90,9.89,9.87,9.89,9.89,9.89,9.89,9.89,9.89,9.89,9.89,9.89,9.89,9.89,9.89,9.89,9.89,9.89,9.89,9.89,9.89,9.89,9.89,9.89,9.89,9.89,9.89,9.89,9.89,9.89,9.89,9.89,9.89,9.89,9.89,9.89,9.89,9.89,9.89,9.89,9.89,9.89,9.88,9.83,9.83,9.84,9.84,9.83,9.82,9.83,9.84,9.68,9.65,9.70,9.76,9.71,9.75,9.88,9.92,9.90,9.90,9.89,9.89,9.88,9.86,9.84,9.82,9.81,9.80,9.78,9.77,9.76,9.74,9.73,9.71,9.67,9.67,9.75,9.79,9.81,9.83,9.86,9.90,9.85,9.89,9.90,9.90,9.91,9.92,9.93,9.94,9.95,9.95,9.94,9.90,9.90,9.90,9.90,9.90,9.90,9.95,9.93,9.91,9.92,9.93,9.93,9.92,9.92,9.93,9.95,9.94,9.93,9.92,9.90,9.89,9.88,9.79,9.66,9.61,9.49,9.45,9.42,9.38,9.43,7.40,5.91,5.91,5.92,5.92,5.91,5.90,5.90,5.90,5.89,5.85,5.86,5.83,5.82,5.81,5.81,5.81,5.82,5.84,5.83,5.83,5.76,5.49,5.49,5.49,5.49,5.49,5.49,5.49,5.49,5.49,5.49,5.49,5.49,5.49,5.49,5.49,5.49,5.49,5.49,5.49,5.49,5.49,5.49,5.49,5.49,5.49,5.49,5.49,5.48,5.48,5.48,5.48,5.48,5.48,5.48,5.48,5.48,5.47,5.46,5.39,5.36,5.36,5.36,5.37,5.37,5.33,5.33,5.34,5.32,5.30,5.29,5.28,5.28,5.28,5.28,4.96,4.81,4.81,4.81,4.81,4.81,4.81,4.81,4.81,4.82,4.82,4.82,4.82,4.82,4.82,4.82,4.82,4.82,4.82,4.82,4.83,4.83,4.83,4.84,4.84,4.84,4.84,4.84,4.84,4.84,4.84,4.84,4.84,4.84,4.84,4.84,4.85,4.85,4.85,4.85,4.85,4.86,4.86,4.85,4.85,4.85,4.85,4.85,4.87,4.90,4.89,4.84,4.84,4.81,4.79,4.78,4.78,4.78,4.77,4.77,4.77,4.74,4.72,4.71,4.66,4.63,4.60,4.52,4.31,4.29,4.26,4.26,4.26,4.26,4.26,4.26,4.22,4.12,4.11,4.00,3.93,3.94,3.91,3.88,3.88,3.87,3.80,3.77,3.74,3.71,3.65,3.62,3.61,3.60,3.58,3.51,3.45,3.41,3.36,3.33,3.31,3.26,3.25,3.21,3.21,3.21,3.21,3.20,3.20,3.20,3.06,3.05,3.04,2.89,2.88,2.88,2.88,2.86,2.86,2.84,2.81,2.79,2.76,2.72,2.71,2.70,2.68,2.64,2.62,2.61,2.60,2.58,2.57,2.55,2.53,2.52,2.51,2.50,2.47,2.44,2.42,2.40,2.38,2.37,2.36,2.36,2.33,2.32,2.32,2.26,2.24,2.24,2.19,2.18,2.18,2.18,2.18,2.18,2.17,2.14,2.14,2.13,2.09,2.05,2.05,2.04,2.04,2.02,2.01,2.01,2.01,2.01,2.01,2.01,2.02,2.02,2.02,2.01,1.90,1.89,1.89,1.89,1.89,1.88,1.88,1.87,1.86,1.85,1.85,1.84,1.83,1.83,1.82,1.81,1.81,1.79,1.78,1.76,1.75,1.74,1.73,1.73,1.73,1.72,1.72,1.71,1.71,1.69,1.69,1.68,1.68,1.66,1.66,1.65,1.64,1.62,1.62,1.61,1.60,1.60,1.59,1.59,1.59,1.58,1.57,1.56,1.55,1.55,1.55,1.55,1.55,1.55,1.55,1.54,1.51,1.50,1.49,1.48,1.47,1.47,1.46,1.46,1.46,1.45,1.45,1.45,1.45,1.45,1.45,1.45,1.45,1.45,1.45,1.45,1.45,1.45,1.45
8.77,8.79,8.81,8.82,8.82,8.82,8.82,8.83,8.83,8.83,8.83,8.83,8.82,8.82,8.83,8.84,8.84,8.84,8.84,8.84,8.87,8.88,8.89,8.89,8.88,8.86,8.81,8.80,8.78,8.77,8.78,8.82,8.81,8.87,8.87,9.14,9.13,9.12,9.12,9.13,9.13,9.13,9.14,9.14,9.44,9.48,9.57,9.64,9.64,9.63,9.64,9.65,9.71,9.80,9.85,9.88,9.85,9.83,9.73,9.71,9.73,9.73,9.78,9.79,9.88,9.90,9.91,9.96,9.95,9.95,9.93,9.94,9.94,9.93,9.92,9.92,9.92,9.92,9.92,9.92,9.92,9.91,9.91,9.91,9.91,9.91,9.91,9.91,9.91,9.91,9.91,9.92,9.92,9.92,9.92,9.92,9.92,9.92,9.92,9.92,9.92,9.92,9.92,9.92,9.92,9.92,9.92,9.92,9.92,9.92,9.92,9.92,9.92,9.92,9.92,9.92,9.92,9.92,9.92,9.91,9.91,9.91,9.91,9.91,9.90,9.90,9.90,9.90,9.90,9.90,9.90,9.90,9.89,9.89,9.86,9.73,9.70,9.89,9.89,9.90,9.89,9.89,9.89,9.90,9.89,9.89,9.89,9.89,9.89,9.89,9.89,9.89,9.89,9.89,9.89,9.89,9.89,9.89,9.89,9.89,9.89,9.89,9.89,9.89,9.89,9.89,9.89,9.89,9.89,9.89,9.89,9.89,9.89,9.89,9.89,9.89,9.89,9.89,9.89,9.89,9.89,9.89,9.88,9.82,9.82,9.83,9.83,9.84,9.84,9.89,9.84,9.68,9.66,9.70,9.81,9.80,9.82,9.87,9.90,9.91,9.90,9.89,9.88,9.87,9.86,9.84,9.83,9.81,9.80,9.79,9.78,9.78,9.82,9.68,9.65,9.65,9.66,9.72,9.77,9.80,9.83,9.87,9.92,9.90,9.89,9.89,9.94,9.91,9.93,9.95,9.95,9.96,9.96,9.92,9.90,9.90,9.90,9.90,9.90,9.90,9.91,9.91,9.91,9.95,9.93,9.93,9.92,9.91,9.91,9.91,9.95,9.93,9.92,9.91,9.90,9.90,9.76,9.64,9.54,9.36,9.25,9.31,9.02,9.10,7.52,5.91,5.91,5.92,5.93,5.91,5.91,5.90,5.90,5.89,5.88,5.88,5.85,5.82,5.81,5.81,5.81,5.83,5.86,5.85,5.85,5.77,5.49,5.49,5.49,5.49,5.49,5.49,5.49,5.49,5.49,5.49,5.49,5.49,5.49,5.49,5.49,5.49,5.49,5.49,5.49,5.49,5.49,5.49,5.49,5.49,5.49,5.49,5.49,5.49,5.49,5.48,5.48,5.48,5.48,5.48,5.48,5.48,5.48,5.47,5.39,5.36,5.36,5.37,5.38,5.38,5.35,5.34,5.33,5.29,5.28,5.28,5.28,5.28,5.28,5.28,5.06,4.81,4.80,4.80,4.80,4.81,4.81,4.81,4.81,4.81,4.81,4.82,4.82,4.82,4.82,4.82,4.82,4.82,4.82,4.82,4.83,4.83,4.83,4.84,4.84,4.84,4.84,4.84,4.84,4.84,4.84,4.84,4.84,4.84,4.85,4.85,4.85,4.85,4.85,4.85,4.86,4.86,4.86,4.86,4.85,4.85,4.85,4.85,4.87,4.89,4.89,4.85,4.85,4.82,4.80,4.78,4.78,4.78,4.78,4.78,4.78,4.75,4.73,4.71,4.67,4.64,4.62,4.49,4.31,4.29,4.26,4.26,4.26,4.26,4.26,4.25,4.21,4.12,4.09,3.99,3.93,3.94,3.90,3.87,3.87,3.85,3.80,3.77,3.74,3.70,3.67,3.63,3.62,3.61,3.59,3.49,3.45,3.40,3.36,3.34,3.32,3.27,3.25,3.22,3.21,3.21,3.21,3.21,3.21,3.21,3.05,3.05,3.04,2.91,2.89,2.88,2.88,2.89,2.88,2.85,2.82,2.79,2.77,2.75,2.73,2.71,2.68,2.65,2.62,2.61,2.60,2.58,2.57,2.56,2.54,2.52,2.50,2.46,2.44,2.44,2.41,2.40,2.38,2.37,2.37,2.36,2.34,2.33,2.33,2.26,2.24,2.24,2.20,2.19,2.18,2.18,2.18,2.17,2.16,2.14,2.13,2.12,2.11,2.08,2.06,2.07,2.07,2.03,2.01,2.01,2.01,2.01,2.02,2.02,2.02,2.02,2.02,2.00,1.90,1.89,1.89,1.89,1.89,1.88,1.88,1.87,1.86,1.85,1.85,1.84,1.83,1.83,1.82,1.81,1.80,1.79,1.78,1.75,1.75,1.74,1.74,1.73,1.73,1.72,1.72,1.71,1.71,1.69,1.69,1.68,1.68,1.67,1.66,1.65,1.64,1.63,1.62,1.61,1.60,1.60,1.59,1.59,1.59,1.59,1.58,1.57,1.56,1.55,1.55,1.55,1.55,1.55,1.55,1.54,1.51,1.50,1.49,1.47,1.47,1.47,1.46,1.46,1.46,1.46,1.45,1.45,1.45,1.45,1.45,1.45,1.45,1.45,1.45,1.45,1.45,1.45,1.45
8.78,8.82,8.82,8.82,8.83,8.83,8.84,8.84,8.84,8.83,8.83,8.83,8.83,8.83,8.83,8.84,8.84,8.84,8.85,8.85,8.88,8.89,8.89,8.89,8.89,8.89,8.86,8.83,8.85,8.85,8.83,8.85,8.85,8.87,8.88,9.05,9.14,9.12,9.13,9.13,9.13,9.15,9.15,9.14,9.15,9.37,9.55,9.63,9.63,9.63,9.65,9.66,9.66,9.71,9.79,9.79,9.79,9.76,9.69,9.77,9.77,9.76,9.86,9.87,9.88,9.92,9.96,9.95,9.94,9.95,9.94,9.94,9.94,9.93,9.92,9.92,9.92,9.92,9.92,9.92,9.92,9.91,9.91,9.91,9.91,9.91,9.91,9.91,9.91,9.91,9.91,9.92,9.92,9.92,9.92,9.92,9.92,9.92,9.92,9.92,9.92,9.92,9.92,9.92,9.92,9.92,9.92,9.92,9.92,9.92,9.92,9.92,9.92,9.92,9.92,9.92,9.92,9.92,9.91,9.91,9.91,9.91,9.91,9.91,9.90,9.90,9.90,9.90,9.90,9.90,9.90,9.90,9.90,9.89,9.87,9.81,9.80,9.89,9.91,9.89,9.87,9.87,9.87,9.88,9.88,9.89,9.89,9.89,9.89,9.89,9.89,9.89,9.89,9.89,9.89,9.89,9.89,9.89,9.89,9.89,9.89,9.89,9.89,9.89,9.89,9.89,9.89,9.89,9.89,9.89,9.89,9.89,9.89,9.89,9.89,9.89,9.89,9.89,9.89,9.89,9.89,9.89,9.88,9.82,9.81,9.82,9.88,9.80,9.83,9.74,9.71,9.69,9.66,9.70,9.81,9.78,9.73,9.77,9.79,9.80,9.81,9.81,9.81,9.82,9.87,9.80,9.77,9.75,9.73,9.71,9.70,9.68,9.67,9.65,9.63,9.63,9.63,9.64,9.69,9.73,9.77,9.81,9.88,9.86,9.85,9.80,9.83,9.88,9.90,9.97,9.93,9.92,9.91,9.90,9.89,9.89,9.89,9.89,9.89,9.90,9.90,9.91,9.95,9.94,9.93,9.90,9.88,9.88,9.89,9.90,9.91,9.94,9.93,9.92,9.91,9.91,9.91,9.84,9.58,9.33,9.08,8.48,7.88,7.87,6.87,5.91,5.91,5.91,5.91,5.91,5.90,5.90,5.89,5.87,5.86,5.86,5.84,5.81,5.81,5.81,5.81,5.83,5.84,5.82,5.82,5.77,5.49,5.49,5.49,5.49,5.49,5.49,5.49,5.49,5.49,5.49,5.49,5.49,5.49,5.49,5.49,5.49,5.49,5.49,5.49,5.49,5.49,5.49,5.49,5.49,5.49,5.49,5.49,5.49,5.49,5.49,5.49,5.49,5.48,5.48,5.48,5.48,5.48,5.48,5.40,5.37,5.37,5.38,5.41,5.38,5.34,5.31,5.31,5.29,5.28,5.28,5.28,5.28,5.28,5.28,5.00,4.80,4.79,4.79,4.79,4.80,4.80,4.80,4.81,4.81,4.81,4.81,4.82,4.82,4.82,4.82,4.82,4.82,4.82,4.83,4.83,4.83,4.83,4.84,4.84,4.84,4.84,4.84,4.84,4.84,4.84,4.84,4.84,4.85,4.85,4.85,4.85,4.85,4.85,4.85,4.86,4.86,4.86,4.86,4.86,4.86,4.87,4.87,4.87,4.88,4.90,4.86,4.85,4.83,4.81,4.79,4.78,4.78,4.78,4.78,4.78,4.77,4.75,4.72,4.69,4.65,4.64,4.50,4.32,4.29,4.26,4.26,4.26,4.26,4.26,4.26,4.23,4.16,4.10,3.99,3.93,3.93,3.89,3.86,3.84,3.83,3.79,3.76,3.73,3.70,3.67,3.64,3.62,3.61,3.60,3.52,3.44,3.41,3.39,3.36,3.32,3.29,3.26,3.22,3.22,3.22,3.22,3.21,3.22,3.22,3.06,3.05,2.98,2.92,2.92,2.93,2.91,2.89,2.88,2.85,2.83,2.80,2.79,2.77,2.74,2.72,2.68,2.67,2.63,2.61,2.60,2.58,2.57,2.56,2.53,2.49,2.47,2.44,2.44,2.44,2.40,2.38,2.37,2.37,2.36,2.35,2.34,2.34,2.33,2.26,2.24,2.23,2.20,2.19,2.19,2.19,2.18,2.17,2.15,2.14,2.12,2.11,2.11,2.10,2.09,2.08,2.08,2.04,2.03,2.02,2.01,2.02,2.02,2.02,2.02,2.02,2.02,1.99,1.90,1.89,1.89,1.89,1.89,1.89,1.88,1.87,1.87,1.86,1.85,1.84,1.83,1.82,1.82,1.81,1.80,1.79,1.78,1.76,1.75,1.75,1.74,1.74,1.73,1.72,1.72,1.71,1.71,1.69,1.69,1.68,1.68,1.66,1.65,1.65,1.63,1.63,1.62,1.61,1.60,1.60,1.59,1.59,1.59,1.59,1.58,1.57,1.56,1.55,1.55,1.55,1.55,1.55,1.54,1.52,1.51,1.51,1.48,1.47,1.47,1.47,1.46,1.46,1.46,1.45,1.45,1.45,1.45,1.45,1.45,1.45,1.45,1.45,1.45,1.45,1.45,1.45,1.45
8.77,8.82,8.82,8.82,8.83,8.83,8.84,8.85,8.85,8.85,8.84,8.83,8.83,8.83,8.83,8.85,8.85,8.85,8.85,8.85,8.89,8.89,8.89,8.89,8.89,8.89,8.90,8.89,8.88,8.88,8.88,8.88,8.90,8.89,8.89,9.00,9.14,9.13,9.13,9.13,9.13,9.21,9.19,9.20,9.21,9.42,9.57,9.62,9.63,9.68,9.67,9.73,9.73,9.75,9.74,9.70,9.65,9.66,9.72,9.84,9.80,9.82,9.88,9.90,9.92,9.93,9.94,9.95,9.94,9.95,9.95,9.94,9.94,9.93,9.93,9.92,9.92,9.92,9.92,9.92,9.92,9.91,9.91,9.91,9.91,9.91,9.91,9.91,9.91,9.91,9.91,9.92,9.92,9.92,9.92,9.92,9.92,9.92,9.92,9.92,9.92,9.92,9.92,9.92,9.92,9.92,9.92,9.92,9.92,9.92,9.92,9.92,9.92,9.92,9.92,9.92,9.92,9.91,9.91,9.91,9.91,9.91,9.91,9.91,9.90,9.90,9.90,9.90,9.90,9.90,9.90,9.90,9.90,9.89,9.84,9.69,9.68,9.89,9.90,9.89,9.84,9.84,9.86,9.86,9.89,9.90,9.90,9.90,9.90,9.90,9.89,9.89,9.89,9.89,9.89,9.89,9.89,9.89,9.89,9.89,9.89,9.89,9.89,9.89,9.89,9.89,9.89,9.89,9.89,9.89,9.89,9.89,9.89,9.89,9.89,9.89,9.89,9.89,9.88,9.88,9.88,9.88,9.86,9.81,9.81,9.81,9.81,9.70,9.70,9.68,9.71,9.74,9.86,9.69,9.68,9.66,9.72,9.80,9.80,9.80,9.80,9.80,9.80,9.80,9.79,9.78,9.77,9.75,9.73,9.71,9.70,9.68,9.67,9.65,9.64,9.64,9.64,9.66,9.69,9.73,9.77,9.81,9.82,9.79,9.78,9.72,9.76,9.85,9.90,9.90,9.91,9.90,9.90,9.89,9.88,9.82,9.79,9.85,9.89,9.89,9.90,9.91,9.96,9.94,9.93,9.91,9.89,9.83,9.88,9.90,9.91,9.95,9.93,9.92,9.91,9.91,9.91,9.89,9.76,9.45,9.11,7.77,7.05,6.53,6.18,5.93,5.94,5.91,5.90,5.90,5.90,5.90,5.88,5.83,5.82,5.82,5.81,5.81,5.81,5.81,5.81,5.81,5.81,5.82,5.84,5.77,5.49,5.49,5.49,5.49,5.49,5.49,5.49,5.49,5.49,5.49,5.49,5.49,5.49,5.49,5.49,5.49,5.49,5.49,5.49,5.49,5.49,5.49,5.49,5.49,5.49,5.49,5.49,5.49,5.49,5.49,5.49,5.49,5.49,5.49,5.49,5.49,5.48,5.48,5.40,5.37,5.37,5.39,5.42,5.40,5.34,5.31,5.30,5.28,5.28,5.28,5.28,5.28,5.28,5.27,5.08,4.79,4.78,4.78,4.78,4.78,4.79,4.80,4.81,4.81,4.81,4.81,4.81,4.82,4.82,4.82,4.82,4.82,4.83,4.83,4.83,4.83,4.83,4.84,4.84,4.84,4.84,4.84,4.85,4.85,4.85,4.85,4.85,4.85,4.85,4.85,4.85,4.85,4.85,4.85,4.86,4.86,4.86,4.86,4.86,4.86,4.89,4.89,4.88,4.88,4.91,4.88,4.86,4.85,4.83,4.81,4.79,4.78,4.78,4.78,4.78,4.78,4.77,4.73,4.70,4.67,4.66,4.52,4.33,4.30,4.26,4.26,4.26,4.26,4.26,4.26,4.25,4.17,4.13,3.99,3.93,3.92,3.88,3.84,3.82,3.83,3.80,3.75,3.71,3.68,3.68,3.65,3.61,3.60,3.60,3.58,3.54,3.42,3.40,3.37,3.33,3.29,3.28,3.24,3.23,3.23,3.22,3.22,3.24,3.22,3.06,3.06,2.98,2.92,2.92,2.92,2.92,2.90,2.88,2.85,2.81,2.81,2.80,2.79,2.75,2.72,2.69,2.65,2.63,2.62,2.60,2.58,2.57,2.51,2.48,2.47,2.47,2.44,2.43,2.41,2.39,2.38,2.37,2.37,2.37,2.37,2.34,2.34,2.33,2.27,2.25,2.23,2.22,2.21,2.20,2.19,2.18,2.16,2.15,2.14,2.12,2.11,2.10,2.10,2.09,2.08,2.06,2.04,2.04,2.02,2.02,2.02,2.02,2.02,2.02,2.02,2.02,1.96,1.90,1.90,1.89,1.90,1.89,1.88,1.88,1.88,1.87,1.86,1.85,1.84,1.83,1.82,1.81,1.81,1.80,1.79,1.78,1.77,1.76,1.75,1.74,1.74,1.73,1.72,1.72,1.71,1.70,1.69,1.69,1.69,1.68,1.67,1.66,1.65,1.64,1.63,1.62,1.61,1.60,1.59,1.59,1.59,1.59,1.59,1.58,1.57,1.56,1.55,1.55,1.55,1.55,1.54,1.53,1.52,1.51,1.51,1.49,1.48,1.47,1.47,1.47,1.46,1.45,1.45,1.45,1.45,1.45,1.45,1.45,1.45,1.45,1.45,1.45,1.45,1.45,1.45,1.45
8.77,8.81,8.82,8.82,8.83,8.83,8.83,8.84,8.86,8.86,8.86,8.86,8.85,8.85,8.84,8.85,8.85,8.85,8.85,8.87,8.91,8.90,8.89,8.89,8.89,8.89,8.92,8.95,8.94,8.91,8.99,8.93,8.91,8.91,8.91,8.98,9.12,9.13,9.13,9.13,9.17,9.22,9.23,9.30,9.40,9.52,9.58,9.62,9.63,9.63,9.64,9.65,9.64,9.62,9.63,9.64,9.64,9.65,9.76,9.86,9.88,9.89,9.89,9.91,9.96,9.94,9.94,9.94,9.94,9.94,9.94,9.94,9.94,9.93,9.92,9.92,9.92,9.92,9.92,9.92,9.92,9.91,9.91,9.91,9.91,9.91,9.91,9.91,9.91,9.91,9.91,9.92,9.92,9.92,9.92,9.92,9.92,9.92,9.92,9.92,9.92,9.92,9.92,9.92,9.92,9.92,9.92,9.92,9.92,9.92,9.92,9.92,9.92,9.91,9.91,9.91,9.91,9.91,9.91,9.91,9.91,9.91,9.91,9.91,9.91,9.90,9.90,9.90,9.90,9.90,9.90,9.90,9.89,9.88,9.81,9.69,9.67,9.88,9.89,9.87,9.69,9.69,9.82,9.72,9.74,9.87,9.89,9.90,9.90,9.92,9.90,9.90,9.90,9.89,9.89,9.89,9.89,9.89,9.89,9.89,9.89,9.89,9.89,9.89,9.89,9.89,9.89,9.89,9.89,9.88,9.88,9.88,9.88,9.87,9.87,9.87,9.87,9.87,9.87,9.87,9.86,9.86,9.86,9.81,9.81,9.80,9.76,9.72,9.77,9.80,9.74,9.76,9.76,9.74,9.71,9.72,9.77,9.85,9.88,9.84,9.82,9.82,9.81,9.81,9.81,9.81,9.80,9.80,9.80,9.80,9.80,9.80,9.79,9.79,9.79,9.78,9.78,9.77,9.76,9.75,9.74,9.78,9.68,9.64,9.67,9.76,9.79,9.85,9.89,9.90,9.90,9.90,9.90,9.89,9.87,9.81,9.78,9.86,9.89,9.89,9.90,9.90,9.89,9.89,9.88,9.85,9.75,9.67,9.81,9.87,9.89,9.89,9.88,9.87,9.87,9.90,9.90,9.89,9.87,9.64,9.22,8.11,6.64,6.38,6.11,5.99,5.97,5.91,5.91,5.91,5.90,5.90,5.88,5.83,5.82,5.82,5.82,5.82,5.81,5.81,5.81,5.81,5.81,5.83,5.87,5.77,5.49,5.49,5.49,5.49,5.49,5.49,5.49,5.49,5.49,5.49,5.49,5.49,5.49,5.49,5.49,5.49,5.49,5.49,5.49,5.49,5.49,5.49,5.49,5.49,5.49,5.49,5.49,5.49,5.49,5.49,5.49,5.49,5.49,5.49,5.49,5.49,5.48,5.48,5.41,5.37,5.37,5.40,5.41,5.41,5.33,5.32,5.29,5.28,5.28,5.28,5.28,5.28,5.27,5.25,5.00,4.78,4.78,4.78,4.77,4.78,4.78,4.79,4.80,4.81,4.81,4.81,4.81,4.82,4.82,4.82,4.83,4.83,4.83,4.83,4.83,4.83,4.83,4.84,4.85,4.85,4.85,4.85,4.85,4.85,4.85,4.85,4.85,4.85,4.85,4.85,4.85,4.85,4.85,4.86,4.86,4.86,4.86,4.87,4.87,4.87,4.88,4.89,4.88,4.90,4.91,4.90,4.88,4.85,4.84,4.84,4.81,4.78,4.78,4.78,4.78,4.78,4.77,4.75,4.73,4.70,4.68,4.53,4.33,4.30,4.26,4.26,4.26,4.26,4.26,4.26,4.25,4.18,4.12,3.99,3.93,3.92,3.87,3.82,3.81,3.82,3.80,3.76,3.73,3.68,3.67,3.66,3.64,3.61,3.60,3.59,3.56,3.51,3.42,3.39,3.35,3.30,3.29,3.27,3.24,3.23,3.23,3.24,3.25,3.24,3.06,3.06,2.96,2.92,2.92,2.91,2.90,2.90,2.88,2.86,2.81,2.80,2.79,2.79,2.76,2.71,2.67,2.66,2.63,2.62,2.60,2.59,2.58,2.55,2.49,2.47,2.46,2.44,2.43,2.39,2.39,2.38,2.38,2.38,2.38,2.37,2.34,2.33,2.33,2.30,2.26,2.23,2.22,2.21,2.20,2.19,2.17,2.15,2.14,2.13,2.12,2.11,2.10,2.09,2.09,2.07,2.06,2.05,2.05,2.03,2.02,2.04,2.03,2.03,2.03,2.02,2.02,1.93,1.90,1.90,1.90,1.90,1.88,1.88,1.88,1.87,1.87,1.87,1.86,1.84,1.83,1.82,1.81,1.80,1.79,1.78,1.78,1.77,1.76,1.75,1.74,1.73,1.73,1.72,1.72,1.71,1.70,1.69,1.69,1.68,1.68,1.67,1.66,1.65,1.64,1.64,1.63,1.62,1.60,1.59,1.59,1.59,1.59,1.58,1.58,1.57,1.56,1.56,1.55,1.55,1.54,1.53,1.52,1.52,1.51,1.51,1.50,1.49,1.48,1.47,1.47,1.46,1.45,1.45,1.45,1.45,1.45,1.45,1.45,1.45,1.45,1.45,1.45,1.45,1.45,1.45,1.45
8.76,8.78,8.80,8.82,8.83,8.83,8.83,8.85,8.86,8.87,8.87,8.87,8.88,8.88,8.87,8.86,8.85,8.85,8.87,8.91,8.91,8.92,8.92,8.93,8.93,8.92,8.94,8.98,9.00,9.01,9.02,8.97,8.93,8.93,8.93,8.95,9.11,9.13,9.13,9.13,9.19,9.33,9.37,9.37,9.44,9.54,9.61,9.62,9.63,9.64,9.63,9.63,9.63,9.57,9.57,9.63,9.66,9.69,9.74,9.86,9.89,9.89,9.89,9.92,9.96,9.96,9.94,9.94,9.94,9.94,9.94,9.94,9.94,9.93,9.92,9.92,9.92,9.92,9.92,9.92,9.92,9.92,9.91,9.92,9.91,9.91,9.91,9.91,9.91,9.91,9.91,9.92,9.92,9.92,9.92,9.92,9.92,9.92,9.92,9.92,9.92,9.92,9.92,9.92,9.92,9.92,9.92,9.92,9.92,9.92,9.92,9.92,9.91,9.91,9.91,9.91,9.91,9.91,9.91,9.91,9.91,9.91,9.91,9.91,9.91,9.91,9.91,9.91,9.91,9.90,9.90,9.90,9.89,9.87,9.85,9.80,9.69,9.88,9.89,9.85,9.65,9.64,9.64,9.67,9.68,9.83,9.87,9.88,9.88,9.90,9.89,9.88,9.89,9.90,9.91,9.91,9.90,9.90,9.90,9.90,9.90,9.90,9.89,9.89,9.89,9.89,9.89,9.89,9.88,9.88,9.88,9.88,9.88,9.87,9.87,9.87,9.87,9.87,9.87,9.87,9.86,9.86,9.86,9.85,9.85,9.82,9.84,9.83,9.89,9.92,9.89,9.87,9.87,9.87,9.87,9.88,9.88,9.88,9.87,9.87,9.87,9.86,9.86,9.86,9.85,9.85,9.85,9.84,9.84,9.83,9.82,9.82,9.81,9.80,9.80,9.79,9.79,9.78,9.77,9.76,9.72,9.66,9.65,9.65,9.67,9.83,9.87,9.88,9.89,9.90,9.90,9.89,9.89,9.89,9.89,9.89,9.89,9.89,9.89,9.90,9.90,9.90,9.89,9.89,9.87,9.79,9.70,9.66,9.75,9.85,9.87,9.88,9.86,9.88,9.87,9.85,9.87,9.92,9.83,9.66,9.28,8.75,7.15,6.31,6.00,5.97,5.95,5.91,5.91,5.91,5.91,5.90,5.88,5.83,5.82,5.83,5.84,5.85,5.84,5.83,5.84,5.82,5.83,5.85,5.88,5.77,5.50,5.49,5.49,5.49,5.49,5.49,5.49,5.49,5.49,5.49,5.49,5.49,5.49,5.49,5.49,5.49,5.49,5.49,5.49,5.49,5.49,5.49,5.49,5.49,5.49,5.49,5.49,5.49,5.49,5.49,5.49,5.49,5.49,5.49,5.49,5.49,5.49,5.48,5.40,5.37,5.38,5.38,5.39,5.38,5.30,5.29,5.29,5.28,5.28,5.28,5.28,5.28,5.23,5.23,5.09,4.79,4.77,4.77,4.77,4.76,4.77,4.79,4.80,4.81,4.81,4.81,4.81,4.81,4.82,4.82,4.83,4.83,4.83,4.83,4.83,4.83,4.83,4.85,4.85,4.85,4.85,4.85,4.85,4.85,4.85,4.85,4.85,4.85,4.85,4.86,4.85,4.85,4.86,4.86,4.87,4.87,4.87,4.87,4.87,4.87,4.87,4.88,4.88,4.89,4.91,4.90,4.88,4.85,4.84,4.84,4.82,4.78,4.78,4.78,4.78,4.78,4.78,4.78,4.75,4.71,4.70,4.53,4.34,4.30,4.28,4.28,4.26,4.26,4.26,4.26,4.25,4.18,4.13,4.01,3.94,3.93,3.88,3.84,3.84,3.81,3.79,3.75,3.71,3.68,3.67,3.67,3.65,3.63,3.62,3.60,3.57,3.53,3.50,3.40,3.34,3.29,3.28,3.28,3.28,3.28,3.28,3.26,3.25,3.25,3.06,3.06,2.96,2.92,2.92,2.91,2.90,2.89,2.88,2.86,2.83,2.81,2.79,2.77,2.73,2.67,2.66,2.66,2.63,2.63,2.61,2.59,2.57,2.54,2.53,2.48,2.45,2.42,2.41,2.40,2.40,2.38,2.38,2.38,2.37,2.34,2.33,2.33,2.32,2.27,2.27,2.24,2.23,2.22,2.20,2.19,2.17,2.15,2.14,2.13,2.12,2.11,2.10,2.09,2.08,2.07,2.05,2.05,2.05,2.05,2.04,2.04,2.04,2.03,2.03,2.02,2.02,1.94,1.90,1.90,1.90,1.90,1.89,1.88,1.88,1.87,1.87,1.87,1.86,1.85,1.83,1.82,1.82,1.80,1.79,1.78,1.78,1.77,1.75,1.75,1.74,1.73,1.73,1.72,1.72,1.71,1.70,1.70,1.69,1.68,1.68,1.67,1.66,1.65,1.64,1.64,1.63,1.62,1.60,1.59,1.59,1.59,1.58,1.58,1.58,1.57,1.57,1.55,1.54,1.54,1.54,1.53,1.52,1.51,1.51,1.50,1.50,1.50,1.49,1.48,1.47,1.46,1.45,1.45,1.45,1.45,1.45,1.45,1.45,1.45,1.45,1.45,1.45,1.45,1.45,1.45,1.45
